ply
format ascii 1.0
element vertex 1764
property float x
property float y
property float z
end_header
0.814557 0.499028 3.057084
0.815595 0.499211 3.052095
0.784179 0.493671 3.041965
0.785386 0.493884 3.036972
0.786942 0.494158 3.032032
0.788549 0.494442 3.027100
0.789982 0.494694 3.022139
0.790994 0.494873 3.017108
0.792309 0.495105 3.012125
0.793935 0.495391 3.007190
0.795852 0.495730 3.002303
0.797484 0.496017 2.997368
0.799610 0.496392 2.992515
0.801309 0.496692 2.987590
0.803890 0.497147 2.982813
0.807514 0.497786 2.978213
0.810979 0.498397 2.973588
0.848296 0.504977 2.974765
0.815342 0.499166 2.963904
0.817215 0.499496 2.959008
0.856362 0.506399 2.960594
0.859044 0.506872 2.955871
0.860897 0.507199 2.951003
0.862265 0.507440 2.946049
0.864715 0.507872 2.941285
0.867281 0.508324 2.936543
0.869604 0.508734 2.931757
0.872048 0.509165 2.926993
0.874735 0.509639 2.922274
0.876821 0.510006 2.917447
0.916252 0.516959 2.919439
0.919679 0.517563 2.914890
0.923538 0.518244 2.910423
0.928626 0.519141 2.906186
0.974187 0.527175 2.909487
0.979678 0.528143 2.900230
0.982908 0.528713 2.895694
0.950176 0.522941 2.884340
0.950940 0.523076 2.879307
0.951467 0.523169 2.874225
0.986785 0.529396 2.875831
0.986173 0.529288 2.870555
0.990439 0.530040 2.866220
0.994877 0.530823 2.861922
0.966791 0.525871 2.851259
0.966360 0.525795 2.845983
0.966241 0.525774 2.840764
0.966880 0.525886 2.835691
0.969822 0.526405 2.831075
0.972107 0.526808 2.826328
0.971791 0.526752 2.821058
0.970964 0.526606 2.815681
0.971734 0.526742 2.810622
0.972371 0.526854 2.805534
0.973567 0.527065 2.800557
0.977674 0.527790 2.796177
0.981122 0.528398 2.791665
0.984537 0.529000 2.787148
0.989828 0.529933 2.783023
1.029384 0.536908 2.786072
0.991956 0.530308 2.773015
1.031662 0.537309 2.776160
1.034325 0.537779 2.771525
1.000090 0.531742 2.759040
1.048079 0.540204 2.748455
1.050944 0.540709 2.743869
1.018636 0.535012 2.731611
1.055183 0.541457 2.734374
1.056426 0.541676 2.729434
1.061867 0.542635 2.725419
1.105201 0.550276 2.729813
1.107613 0.550701 2.725170
1.074849 0.544924 2.712663
1.074909 0.544935 2.707461
1.075572 0.545052 2.702390
1.077609 0.545411 2.697628
1.081536 0.546103 2.693295
1.121171 0.553092 2.697111
1.123778 0.553552 2.692515
1.091506 0.547861 2.679900
1.091870 0.547925 2.674756
1.129447 0.554551 2.678233
1.131688 0.554946 2.673553
1.134098 0.555371 2.668912
1.137641 0.555996 2.664538
1.140499 0.556500 2.660005
1.140155 0.556439 2.654716
1.139981 0.556409 2.649464
1.179026 0.563293 2.653547
1.186079 0.564537 2.650049
1.188926 0.565039 2.645551
1.191206 0.565441 2.640918
1.190770 0.565364 2.635628
1.117873 0.552511 2.612745
1.147338 0.557706 2.614664
1.149505 0.558088 2.609958
1.127812 0.554263 2.599394
1.128567 0.554396 2.594317
1.127785 0.554258 2.588858
1.125536 0.553862 2.583029
1.123283 0.553464 2.577191
1.123007 0.553416 2.571839
1.122903 0.553397 2.566526
1.099718 0.549309 2.555393
1.099063 0.549194 2.549910
1.098422 0.549081 2.544426
1.096875 0.548808 2.538706
1.097829 0.548976 2.533618
1.101457 0.549616 2.529214
1.103806 0.550030 2.524484
1.106544 0.550513 2.519854
1.107899 0.550752 2.514867
1.109192 0.550980 2.509861
1.110826 0.551268 2.504944
1.114472 0.551911 2.500553
1.116653 0.552295 2.495779
1.121078 0.553076 2.491597
1.125431 0.553843 2.487401
1.127056 0.554130 2.482483
1.131013 0.554827 2.478187
1.166825 0.561142 2.482426
1.173851 0.562381 2.478991
1.142693 0.556887 2.443825
1.130319 0.554705 2.435058
1.129334 0.554531 2.429400
1.130823 0.554794 2.424420
1.131692 0.554947 2.419266
1.084615 0.546646 2.400771
1.082270 0.546233 2.394670
1.084201 0.546573 2.389758
1.115188 0.552037 2.393012
1.117385 0.552424 2.388201
1.120047 0.552894 2.383522
1.125486 0.553853 2.379632
1.129316 0.554528 2.375291
1.096756 0.548787 2.360551
1.098448 0.549085 2.355567
1.102894 0.549869 2.351376
1.101991 0.549710 2.345644
1.097559 0.548929 2.338883
1.097886 0.548986 2.333493
1.099756 0.549316 2.328550
1.103297 0.549940 2.324094
1.108857 0.550921 2.320234
1.114756 0.551961 2.316479
1.112576 0.551576 2.310345
1.110387 0.551190 2.304201
1.109886 0.551102 2.298549
1.112243 0.551518 2.293745
1.115422 0.552078 2.289187
1.117374 0.552422 2.284263
1.119465 0.552791 2.279379
1.121327 0.553120 2.274427
1.122828 0.553384 2.269364
1.124642 0.553704 2.264395
1.127043 0.554127 2.259604
1.129490 0.554559 2.254828
1.133399 0.555248 2.250501
1.139395 0.556305 2.246820
1.139157 0.556264 2.241220
1.140288 0.556463 2.236040
1.143053 0.556950 2.231366
1.147062 0.557657 2.227081
1.152538 0.558623 2.223258
1.160610 0.560046 2.220256
1.193351 0.565819 2.225029
1.165671 0.560938 2.210786
1.160416 0.560012 2.203587
1.161318 0.560171 2.198329
1.164348 0.560705 2.193747
1.167520 0.561265 2.189211
1.170701 0.561826 2.184681
1.173607 0.562338 2.180063
1.176850 0.562910 2.175556
1.213804 0.569426 2.181958
1.216567 0.569913 2.177332
1.220611 0.570626 2.173124
1.222703 0.570995 2.168283
1.225858 0.571551 2.163789
1.231522 0.572550 2.160121
1.266581 0.578732 2.166145
1.268201 0.579017 2.161184
1.270428 0.579410 2.156423
1.273411 0.579936 2.151913
1.277164 0.580598 2.147661
1.281164 0.581303 2.143495
1.285589 0.582083 2.139476
1.290325 0.582918 2.135565
1.294184 0.583599 2.131364
1.329524 0.589830 2.137818
1.332239 0.590309 2.133266
1.334629 0.590730 2.128605
1.338445 0.591403 2.124430
1.343263 0.592253 2.120603
1.345541 0.592654 2.115908
1.347479 0.592996 2.111096
1.382230 0.599124 2.117617
1.385444 0.599691 2.113279
1.386495 0.599876 2.108192
1.388088 0.600157 2.103292
1.391932 0.600834 2.099177
1.398516 0.601995 2.096025
1.436112 0.608625 2.103779
1.438386 0.609026 2.099157
1.412534 0.604467 2.084597
1.408161 0.603696 2.077592
1.406537 0.603410 2.071551
1.412965 0.604543 2.068372
1.442088 0.609678 2.073313
1.414635 0.604838 2.058031
1.368218 0.596653 2.035873
1.371412 0.597216 2.031498
1.346923 0.592898 2.017120
1.349799 0.593405 2.012606
1.352408 0.593865 2.007996
1.354731 0.594275 2.003283
1.356190 0.594532 1.998255
1.358031 0.594857 1.993365
1.359622 0.595137 1.988382
1.361689 0.595502 1.983574
1.363742 0.595864 1.978760
1.365929 0.596250 1.973996
1.368373 0.596680 1.969327
1.370700 0.597091 1.964615
1.373023 0.597500 1.959902
1.375196 0.597883 1.955132
1.377908 0.598362 1.950566
1.412906 0.604533 1.958163
1.415184 0.604934 1.953468
1.417358 0.605318 1.948733
1.419635 0.605719 1.944038
1.421706 0.606084 1.939264
1.424092 0.606505 1.934611
1.426586 0.606945 1.929999
1.428549 0.607291 1.925184
1.430723 0.607674 1.920450
1.433216 0.608114 1.915839
1.436255 0.608650 1.911440
1.440325 0.609367 1.907442
1.446964 0.610538 1.904449
1.481758 0.616673 1.912448
1.485927 0.617408 1.908536
1.511487 0.621915 1.913017
1.487115 0.617618 1.897912
1.457296 0.612360 1.880605
1.457922 0.612470 1.875266
1.455171 0.611985 1.868586
1.456811 0.612274 1.863640
1.432613 0.608008 1.848398
1.421458 0.606041 1.838312
1.419485 0.605693 1.831876
1.416534 0.605172 1.825038
1.413856 0.604700 1.818299
1.388275 0.600190 1.802305
1.362283 0.595607 1.786087
1.359851 0.595178 1.779369
1.358038 0.594858 1.772893
1.357915 0.594836 1.767098
1.357450 0.594754 1.761158
1.356709 0.594624 1.755099
1.355058 0.594333 1.748660
1.350983 0.593614 1.741215
1.300447 0.584703 1.714562
1.295972 0.583914 1.706875
1.296741 0.584050 1.701351
1.298284 0.584322 1.696146
1.300136 0.584648 1.691069
1.301832 0.584947 1.685925
1.303800 0.585294 1.680894
1.305767 0.585641 1.675863
1.307339 0.585918 1.670664
1.310690 0.586509 1.666215
1.315181 0.587301 1.662252
1.315236 0.587311 1.656410
1.315218 0.587308 1.650531
1.317083 0.587637 1.645452
1.318677 0.587918 1.640256
1.321887 0.588484 1.635751
1.326761 0.589343 1.631965
1.330326 0.589972 1.627619
1.332264 0.590313 1.622573
1.334019 0.590623 1.617448
1.335386 0.590864 1.612152
1.337766 0.591284 1.607296
1.340903 0.591837 1.602771
1.343640 0.592319 1.598072
1.346749 0.592868 1.593538
1.349319 0.593321 1.588768
1.351842 0.593766 1.583979
1.383645 0.599373 1.592127
1.416543 0.605174 1.600825
1.418403 0.605502 1.595807
1.421148 0.605986 1.591182
1.398176 0.601935 1.575084
1.437086 0.608796 1.586609
1.322663 0.588620 1.505558
1.327900 0.589544 1.501945
1.364312 0.595964 1.512519
1.367184 0.596471 1.507875
1.367099 0.596456 1.501880
1.366828 0.596408 1.495795
1.367044 0.596446 1.489928
1.366736 0.596392 1.483816
1.366340 0.596322 1.477657
1.318351 0.587860 1.449480
1.317049 0.587631 1.442838
1.315884 0.587425 1.436251
1.314870 0.587246 1.429727
1.315276 0.587318 1.423859
1.316132 0.587469 1.418197
1.316294 0.587497 1.412207
1.316700 0.587569 1.406326
1.316767 0.587581 1.400282
1.312757 0.586874 1.392307
1.315766 0.587404 1.387641
1.318705 0.587923 1.382944
1.318784 0.587936 1.376887
1.313206 0.586953 1.368129
1.316289 0.587497 1.363492
1.292264 0.583260 1.345871
1.294109 0.583586 1.340613
1.296303 0.583972 1.335522
1.298609 0.584379 1.330485
1.300691 0.584746 1.325340
1.302076 0.584990 1.319856
1.303799 0.585294 1.314534
1.306465 0.585764 1.309671
1.309013 0.586214 1.304750
1.285467 0.582062 1.287069
1.287790 0.582471 1.282010
1.290561 0.582960 1.277171
1.317450 0.587701 1.284209
1.319880 0.588130 1.279230
1.294441 0.583644 1.260468
1.291520 0.583129 1.252806
1.290935 0.583026 1.246293
1.291674 0.583156 1.240433
1.293343 0.583451 1.235033
1.295261 0.583789 1.229757
1.296941 0.584085 1.224361
1.298120 0.584293 1.218711
1.299342 0.584508 1.213080
1.302293 0.585029 1.208320
1.336014 0.590975 1.219127
1.220873 0.570672 1.148173
1.262379 0.577991 1.162951
1.268938 0.579147 1.159981
1.303620 0.585263 1.171407
1.307983 0.586032 1.167362
1.309453 0.586291 1.161834
1.308366 0.586100 1.154989
1.307430 0.585935 1.148213
1.281238 0.581316 1.128366
1.279903 0.581081 1.121339
1.279098 0.580939 1.114580
1.284234 0.581844 1.110906
1.289087 0.582700 1.107092
1.292397 0.583284 1.102476
1.234468 0.573069 1.065766
1.207286 0.568276 1.045068
1.208284 0.568452 1.039136
1.196220 0.566325 1.026310
1.073872 0.544752 0.955142
1.077789 0.545443 0.950591
1.077020 0.545307 0.943555
1.077313 0.545359 0.937076
1.079308 0.545710 0.931500
1.081303 0.546062 0.925923
1.083133 0.546385 0.920256
1.084810 0.546681 0.914506
1.086487 0.546976 0.908755
1.088318 0.547299 0.903085
1.089513 0.547510 0.897069
1.090856 0.547747 0.891130
1.093125 0.548147 0.885692
1.094787 0.548440 0.879923
1.096762 0.548788 0.874322
1.098572 0.549107 0.868631
1.100206 0.549395 0.862842
1.102152 0.549739 0.857222
1.104123 0.550086 0.851614
1.106429 0.550493 0.846190
1.108571 0.550870 0.840675
1.111254 0.551343 0.835458
1.112196 0.551510 0.829278
1.113416 0.551725 0.823247
1.115688 0.552125 0.817800
1.117085 0.552372 0.811864
1.118000 0.552533 0.805656
1.119151 0.552736 0.799576
1.121860 0.553213 0.794369
1.124869 0.553744 0.789330
1.128440 0.554374 0.784610
1.131413 0.554898 0.779554
1.132179 0.555033 0.773251
1.132705 0.555126 0.766807
1.107967 0.550764 0.745999
1.110051 0.551131 0.740404
1.111627 0.551409 0.734517
1.112107 0.551494 0.728002
1.105561 0.550340 0.717455
1.073501 0.544687 0.692234
0.973862 0.527117 0.621059
0.979032 0.528029 0.617064
0.970314 0.526492 0.605032
0.929959 0.519376 0.574615
0.935352 0.520327 0.570697
0.937629 0.520729 0.564970
0.939781 0.521108 0.559170
0.942608 0.521607 0.553763
0.944622 0.521962 0.547880
0.946761 0.522339 0.542070
0.948624 0.522667 0.536096
0.914311 0.516617 0.508781
0.908972 0.515676 0.498504
0.905951 0.515143 0.489580
0.902898 0.514605 0.480623
0.860370 0.507106 0.448177
0.861682 0.507337 0.441747
0.861433 0.507293 0.434382
0.851213 0.505491 0.421044
-0.016397 0.350000 3.460226
0.033964 0.350000 3.458617
0.050562 0.350000 3.454432
0.058607 0.350000 3.449591
0.057402 0.350000 3.444019
0.054903 0.350000 3.438336
0.054888 0.350000 3.432848
0.056400 0.350000 3.427482
0.058237 0.350000 3.422141
0.060704 0.350000 3.416853
0.063805 0.350000 3.411618
0.066906 0.350000 3.406384
0.068441 0.350000 3.401016
0.070159 0.350000 3.395663
0.072632 0.350000 3.390374
0.075578 0.350000 3.385128
0.033889 0.350000 3.375883
0.081130 0.350000 3.374607
0.084517 0.350000 3.369403
0.087138 0.350000 3.364130
0.089758 0.350000 3.358857
0.092378 0.350000 3.353584
0.100690 0.350000 3.348849
0.153536 0.350000 3.348361
0.154593 0.350000 3.342984
0.157577 0.350000 3.337791
0.161100 0.350000 3.332652
0.164255 0.350000 3.327478
0.168306 0.350000 3.322394
0.171281 0.350000 3.317205
0.175872 0.350000 3.312180
0.182296 0.350000 3.307344
0.231708 0.350000 3.306917
0.236339 0.350000 3.301944
0.238317 0.350000 3.296699
0.240451 0.350000 3.291469
0.243166 0.350000 3.286300
0.346228 0.350000 3.291811
0.404021 0.350000 3.292631
0.194501 0.350000 3.264657
0.617385 0.350000 3.305184
0.620156 0.350000 3.300318
0.621827 0.350000 3.295331
0.724286 0.350000 3.291367
0.682220 0.350000 3.281481
0.683048 0.350000 3.276436
0.685454 0.350000 3.271571
0.687730 0.350000 3.266691
0.690260 0.350000 3.261841
0.692666 0.350000 3.256976
0.734025 0.350000 3.256732
0.736649 0.350000 3.251926
0.740038 0.350000 3.247212
0.743384 0.350000 3.242495
0.707063 0.350000 3.232945
0.750091 0.350000 3.233068
0.752823 0.350000 3.228281
0.755926 0.350000 3.223540
0.759477 0.350000 3.218857
0.763799 0.350000 3.214273
0.772358 0.350000 3.210230
0.853608 0.350000 3.215476
0.860614 0.350000 3.211313
0.865414 0.350000 3.206874
0.869084 0.350000 3.202292
0.873641 0.350000 3.197828
0.916285 0.350000 3.198387
0.918986 0.350000 3.193716
0.922158 0.350000 3.189110
0.924847 0.350000 3.184439
0.926933 0.350000 3.179689
0.929705 0.350000 3.175031
1.064953 0.350000 3.173695
1.067701 0.350000 3.169142
1.034185 0.350000 3.159481
1.072870 0.350000 3.159992
1.038207 0.350000 3.150109
1.035019 0.350000 3.144677
1.000873 0.350000 3.134771
0.997227 0.350000 3.129229
0.997579 0.350000 3.124261
0.998316 0.350000 3.119345
0.999727 0.350000 3.114527
1.001606 0.350000 3.109777
1.003245 0.350000 3.104991
1.005281 0.350000 3.100263
1.008017 0.350000 3.095641
1.010335 0.350000 3.090956
1.012919 0.350000 3.086312
1.015421 0.350000 3.081656
1.017652 0.350000 3.076959
1.021208 0.350000 3.072468
1.024363 0.350000 3.067916
1.028894 0.350000 3.063581
1.033751 0.350000 3.059302
1.075480 0.350000 3.060872
1.082995 0.350000 3.057057
1.079002 0.350000 3.051407
1.081099 0.350000 3.046728
1.084667 0.350000 3.042286
1.087097 0.350000 3.037662
1.092741 0.350000 3.033564
1.134364 0.350000 3.035388
1.100017 0.350000 3.024722
1.096239 0.350000 3.019073
1.097154 0.350000 3.014197
1.099340 0.350000 3.009532
1.066157 0.350000 2.998901
1.068806 0.350000 2.994285
1.071439 0.350000 2.989667
1.070281 0.350000 2.984400
1.070231 0.350000 2.979318
1.072422 0.350000 2.974621
1.074886 0.350000 2.969970
1.080308 0.350000 2.965837
1.122095 0.350000 2.968094
1.122007 0.350000 2.963031
1.123249 0.350000 2.958200
1.124375 0.350000 2.953346
1.095730 0.350000 2.943163
1.091592 0.350000 2.937333
1.089696 0.350000 2.931898
1.090766 0.350000 2.926995
1.092006 0.350000 2.922121
1.092473 0.350000 2.917103
1.092511 0.350000 2.912003
1.093235 0.350000 2.907027
1.093851 0.350000 2.902027
1.094993 0.350000 2.897124
1.093973 0.350000 2.891813
1.066840 0.350000 2.881573
1.068459 0.350000 2.876728
1.071379 0.350000 2.872130
1.074423 0.350000 2.867556
1.075675 0.350000 2.862639
1.077289 0.350000 2.857791
1.078801 0.350000 2.852922
1.051980 0.350000 2.842538
1.051023 0.350000 2.837160
1.049030 0.350000 2.831572
1.047290 0.350000 2.826027
1.045870 0.350000 2.820538
1.047132 0.350000 2.815577
1.048254 0.350000 2.810585
1.049779 0.350000 2.805673
1.051169 0.350000 2.800732
1.052701 0.350000 2.795819
1.054075 0.350000 2.790872
1.055864 0.350000 2.786009
1.057097 0.350000 2.781030
1.056495 0.350000 2.775672
1.057362 0.350000 2.770613
1.060912 0.350000 2.766109
1.064232 0.350000 2.761559
1.065493 0.350000 2.756580
1.066870 0.350000 2.751624
1.036316 0.350000 2.739919
1.071577 0.350000 2.742121
1.075891 0.350000 2.737787
1.077672 0.350000 2.732915
1.043582 0.350000 2.720336
1.045702 0.350000 2.715504
1.048064 0.350000 2.710724
1.050426 0.350000 2.705944
1.052309 0.350000 2.701061
1.054787 0.350000 2.696306
1.057385 0.350000 2.691579
1.096457 0.350000 2.694915
1.099693 0.350000 2.690363
1.103469 0.350000 2.685933
1.107627 0.350000 2.681592
1.114133 0.350000 2.677781
1.156629 0.350000 2.682095
1.164634 0.350000 2.678672
1.207138 0.350000 2.683101
1.207260 0.350000 2.677930
1.172781 0.350000 2.664827
1.171289 0.350000 2.659247
1.173024 0.350000 2.654404
1.175114 0.350000 2.649644
1.177794 0.350000 2.645020
1.185466 0.350000 2.641563
1.216630 0.350000 2.643626
1.213522 0.350000 2.637673
1.214318 0.350000 2.632632
1.187443 0.350000 2.621024
1.164597 0.350000 2.610323
1.164604 0.350000 2.605040
1.162772 0.350000 2.599312
1.159899 0.350000 2.593325
1.159166 0.350000 2.587847
1.158747 0.350000 2.582439
1.159031 0.350000 2.577198
1.160826 0.350000 2.572323
1.165118 0.350000 2.568059
1.171011 0.350000 2.564194
1.176902 0.350000 2.560335
1.205262 0.350000 2.562059
1.206157 0.350000 2.556989
1.178742 0.350000 2.544841
1.170394 0.350000 2.537422
1.167396 0.350000 2.531331
1.167393 0.350000 2.525987
1.170197 0.350000 2.521351
1.177707 0.350000 2.517914
1.184185 0.350000 2.514223
1.151862 0.350000 2.500592
1.149382 0.350000 2.494576
1.124590 0.350000 2.482789
1.123123 0.350000 2.476998
1.124502 0.350000 2.471940
1.130657 0.350000 2.468127
1.132946 0.350000 2.463308
1.127642 0.350000 2.456494
1.127498 0.350000 2.451027
1.128781 0.350000 2.445933
1.131484 0.350000 2.441214
1.133532 0.350000 2.436322
1.134450 0.350000 2.431127
1.135478 0.350000 2.425959
1.137227 0.350000 2.420983
1.140111 0.350000 2.416313
1.142493 0.350000 2.411508
1.145442 0.350000 2.406857
1.148826 0.350000 2.402327
1.152410 0.350000 2.397853
1.191143 0.350000 2.403045
1.195263 0.350000 2.398757
1.202017 0.350000 2.395201
1.242391 0.350000 2.400991
1.247714 0.350000 2.397085
1.283044 0.350000 2.401576
1.285020 0.350000 2.396770
1.289532 0.350000 2.392679
1.290294 0.350000 2.387532
1.290458 0.350000 2.382214
1.293028 0.350000 2.377575
1.296799 0.350000 2.373280
1.299705 0.350000 2.368741
1.266209 0.350000 2.353751
1.309658 0.350000 2.344730
1.314497 0.350000 2.340758
1.318171 0.350000 2.336450
1.320509 0.350000 2.331752
1.324088 0.350000 2.327420
1.328011 0.350000 2.323193
1.328736 0.350000 2.318020
1.328236 0.350000 2.312480
1.331685 0.350000 2.308113
1.334915 0.350000 2.303684
1.337345 0.350000 2.299016
1.339888 0.350000 2.294382
1.345068 0.350000 2.290546
1.348247 0.350000 2.286109
1.351929 0.350000 2.281827
1.356451 0.350000 2.277804
1.361225 0.350000 2.273863
1.394931 0.350000 2.278811
1.388126 0.350000 2.271340
1.357770 0.350000 2.256575
1.359978 0.350000 2.251841
1.363192 0.350000 2.247420
1.394799 0.350000 2.251856
1.399597 0.350000 2.247961
1.379130 0.350000 2.236144
1.400579 0.350000 2.237476
1.373223 0.350000 2.223436
1.348217 0.350000 2.210083
1.346922 0.350000 2.204210
1.347982 0.350000 2.199081
1.350078 0.350000 2.194280
1.353751 0.350000 2.189985
1.386136 0.350000 2.194924
1.389346 0.350000 2.190513
1.396024 0.350000 2.187226
1.434622 0.350000 2.194303
1.437904 0.350000 2.189959
1.440547 0.350000 2.185409
1.441115 0.350000 2.180180
1.443140 0.350000 2.175426
1.443614 0.350000 2.170161
1.443443 0.350000 2.164680
1.411634 0.350000 2.148713
1.413175 0.350000 2.143760
1.501720 0.350000 2.146234
1.467795 0.350000 2.129360
1.464011 0.350000 2.122637
1.465708 0.350000 2.117766
1.467425 0.350000 2.112902
1.469578 0.350000 2.108185
1.471631 0.350000 2.103434
1.473694 0.350000 2.098686
1.475877 0.350000 2.093980
1.478480 0.350000 2.089418
1.481637 0.350000 2.085050
1.485486 0.350000 2.080925
1.489507 0.350000 2.076862
1.493988 0.350000 2.072965
1.498973 0.350000 2.069248
1.534075 0.350000 2.076138
1.536693 0.350000 2.071628
1.539197 0.350000 2.067078
1.541799 0.350000 2.062563
1.545365 0.350000 2.058393
1.551736 0.350000 2.055226
1.557878 0.350000 2.030212
1.560605 0.350000 2.025747
1.562336 0.350000 2.020921
1.564404 0.350000 2.016217
1.566579 0.350000 2.011553
1.568754 0.350000 2.006888
1.540504 0.350000 1.991027
1.542553 0.350000 1.986285
1.544997 0.350000 1.981689
1.577353 0.350000 1.988191
1.579630 0.350000 1.983564
1.581806 0.350000 1.978899
1.583981 0.350000 1.974234
1.616550 0.350000 1.980968
1.617939 0.350000 1.976039
1.619416 0.350000 1.971141
1.621834 0.350000 1.966597
1.624564 0.350000 1.962172
1.626789 0.350000 1.957556
1.631220 0.350000 1.953781
1.638510 0.350000 1.951104
1.645696 0.350000 1.948397
1.649012 0.350000 1.944213
1.652299 0.350000 1.940021
1.688199 0.350000 1.948426
1.660011 0.350000 1.926623
1.681825 0.350000 1.929650
1.681918 0.350000 1.924239
1.660223 0.350000 1.910298
1.662459 0.350000 1.905697
1.665326 0.350000 1.901345
1.629616 0.350000 1.881778
1.605519 0.350000 1.866726
1.597573 0.350000 1.858023
1.599991 0.350000 1.853420
1.608287 0.350000 1.851159
1.635165 0.350000 1.856336
1.639710 0.350000 1.852617
1.637760 0.350000 1.846295
1.639407 0.350000 1.841412
1.647063 0.350000 1.838954
1.614818 0.350000 1.814775
1.575195 0.350000 1.793068
1.544765 0.350000 1.775023
1.540854 0.350000 1.767754
1.543152 0.350000 1.763018
1.552465 0.350000 1.761165
1.578790 0.350000 1.766336
1.532604 0.350000 1.741605
1.475831 0.350000 1.712390
1.471364 0.350000 1.704766
1.470934 0.350000 1.698808
1.472239 0.350000 1.693568
1.473590 0.350000 1.688346
1.477424 0.350000 1.684163
1.479687 0.350000 1.679323
1.480963 0.350000 1.674067
1.482501 0.350000 1.668920
1.483372 0.350000 1.663488
1.486382 0.350000 1.658962
1.490592 0.350000 1.654948
1.496547 0.350000 1.651684
1.506339 0.350000 1.650067
1.534111 0.350000 1.656178
1.537351 0.350000 1.651796
1.537425 0.350000 1.646052
1.507431 0.350000 1.627315
1.502418 0.350000 1.619327
1.500981 0.350000 1.612877
1.501159 0.350000 1.607121
1.482403 0.350000 1.593101
1.541249 0.350000 1.612971
1.549759 0.350000 1.610896
1.551731 0.350000 1.605962
1.514702 0.350000 1.583849
1.448770 0.350000 1.548889
1.436438 0.350000 1.537508
1.428179 0.350000 1.527903
1.428004 0.350000 1.521871
1.405064 0.350000 1.505684
1.407381 0.350000 1.500730
1.408625 0.350000 1.495296
1.411768 0.350000 1.490712
1.381345 0.350000 1.471022
1.381794 0.350000 1.465190
1.388460 0.350000 1.462166
1.417366 0.350000 1.469233
1.389783 0.350000 1.450688
1.373018 0.350000 1.437007
1.373813 0.350000 1.431302
1.375350 0.350000 1.425933
1.381943 0.350000 1.422881
1.382886 0.350000 1.417240
1.380669 0.350000 1.410141
1.389372 0.350000 1.408075
1.423867 0.350000 1.417967
1.403380 0.350000 1.402410
1.408571 0.350000 1.398749
1.408767 0.350000 1.392765
1.363099 0.350000 1.365340
1.364126 0.350000 1.359686
1.331998 0.350000 1.338461
1.329213 0.350000 1.330971
1.328036 0.350000 1.324228
1.326813 0.350000 1.317456
1.327656 0.350000 1.311656
1.328578 0.350000 1.305889
1.329351 0.350000 1.300048
1.328360 0.350000 1.293362
1.323344 0.350000 1.284743
1.298543 0.350000 1.266623
1.300811 0.350000 1.261451
1.303079 0.350000 1.256278
1.275687 0.350000 1.236787
1.275791 0.350000 1.230534
1.274676 0.350000 1.223685
1.274945 0.350000 1.217500
1.274980 0.350000 1.211198
1.277973 0.350000 1.206333
1.307411 0.350000 1.214411
1.232543 0.350000 1.158610
1.267522 0.350000 1.169482
1.277758 0.350000 1.168182
1.277989 0.350000 1.161937
1.278231 0.350000 1.155693
1.279873 0.350000 1.150141
1.282579 0.350000 1.145119
1.285336 0.350000 1.140123
1.287673 0.350000 1.134917
1.289811 0.350000 1.129611
1.292392 0.350000 1.124527
1.294467 0.350000 1.119189
1.296850 0.350000 1.114005
1.299861 0.350000 1.109140
1.302850 0.350000 1.104265
1.305333 0.350000 1.099134
1.304390 0.350000 1.092254
1.278323 0.350000 1.072511
1.286386 0.350000 1.070206
1.280127 0.350000 1.060553
1.277714 0.350000 1.052861
1.245582 0.350000 1.029819
1.248615 0.350000 1.024888
1.247481 0.350000 1.017799
1.249176 0.350000 1.012172
1.251109 0.350000 1.006667
1.253118 0.350000 1.001201
1.254356 0.350000 0.995330
1.255908 0.350000 0.989621
1.257455 0.350000 0.983908
1.259900 0.350000 0.978665
1.261291 0.350000 0.972866
1.264182 0.350000 0.967858
1.264058 0.350000 0.961253
1.261447 0.350000 0.953322
1.255684 0.350000 0.943703
1.227087 0.350000 0.921890
1.227762 0.350000 0.915646
1.198439 0.350000 0.893336
1.195675 0.350000 0.885205
1.188289 0.350000 0.874577
1.144901 0.350000 0.844523
1.145888 0.350000 0.838329
1.146530 0.350000 0.831945
1.148910 0.350000 0.826500
1.151290 0.350000 0.821055
1.153664 0.350000 0.815606
1.156298 0.350000 0.810298
1.158025 0.350000 0.804496
1.128994 0.350000 0.781830
1.128400 0.350000 0.774713
1.130189 0.350000 0.768900
1.130250 0.350000 0.762132
1.131215 0.350000 0.755859
1.132266 0.350000 0.749629
1.133446 0.350000 0.743468
1.135489 0.350000 0.737783
1.137056 0.350000 0.731832
1.137681 0.350000 0.725353
1.137531 0.350000 0.718435
1.137778 0.350000 0.711734
1.139763 0.350000 0.706004
1.144095 0.350000 0.701595
1.142706 0.350000 0.693961
1.138572 0.350000 0.684766
1.103620 0.350000 0.658087
1.108636 0.350000 0.654021
0.959928 0.350000 0.562473
0.932735 0.350000 0.539869
0.933475 0.350000 0.533158
0.903988 0.350000 0.509133
0.859802 0.350000 0.476598
0.855965 0.350000 0.467153
0.857211 0.350000 0.460621
0.041571 0.348069 3.465509
0.048078 0.346922 3.460496
0.047083 0.347097 3.454896
0.082691 0.340819 3.452210
0.044367 0.347576 3.443623
0.043909 0.347657 3.438050
0.046445 0.347210 3.432719
0.048961 0.346766 3.427386
0.052575 0.346129 3.422145
0.057788 0.345210 3.417041
0.062220 0.344428 3.411875
0.067574 0.343484 3.406791
0.073629 0.342416 3.401773
0.122067 0.333876 3.400480
0.082511 0.340850 3.391469
0.082119 0.340920 3.385890
0.082065 0.340929 3.380336
0.083751 0.340632 3.374937
0.087847 0.339910 3.369758
0.145382 0.329765 3.369530
0.203560 0.319506 3.369451
0.205859 0.319101 3.364197
0.161364 0.326947 3.354497
0.159115 0.327343 3.348770
0.159945 0.327197 3.343333
0.206115 0.319056 3.342311
0.209078 0.318533 3.337115
0.214492 0.317579 3.332163
0.216929 0.317149 3.326918
0.220168 0.316578 3.321754
0.224365 0.315838 3.316688
0.232588 0.314388 3.312038
0.282644 0.305562 3.311712
0.293164 0.303707 3.307354
0.345196 0.294532 3.307359
0.348326 0.293980 3.302281
0.306029 0.301438 3.292368
0.403195 0.284305 3.297341
0.509670 0.265531 3.303476
0.568639 0.255133 3.304608
0.618167 0.246400 3.304797
0.614530 0.247041 3.299187
0.574464 0.254106 3.289510
0.578160 0.253454 3.284673
0.624235 0.245330 3.284628
0.629547 0.244393 3.280015
0.586401 0.252001 3.259333
0.588921 0.251557 3.254364
0.637181 0.243047 3.254791
0.640958 0.242381 3.250010
0.643235 0.241980 3.245052
0.645921 0.241506 3.240143
0.647386 0.241248 3.235087
0.645690 0.241547 3.229643
0.605077 0.248708 3.219408
0.651252 0.240566 3.219844
0.656314 0.239674 3.215230
0.661677 0.238728 3.210659
0.665920 0.237980 3.205951
0.668608 0.237506 3.201049
0.711885 0.229875 3.201340
0.714577 0.229400 3.196474
0.717699 0.228850 3.191664
0.677715 0.235900 3.181233
0.680959 0.235328 3.176405
0.682935 0.234979 3.171412
0.727629 0.227099 3.172099
0.729699 0.226734 3.167153
0.690864 0.233581 3.156700
0.738691 0.225148 3.157918
0.746476 0.223776 3.153755
0.787449 0.216551 3.154153
0.789818 0.216133 3.149289
0.792320 0.215692 3.144443
0.839956 0.207292 3.145902
0.885255 0.199305 3.147110
0.849819 0.205553 3.136976
0.942134 0.189276 3.144948
0.983451 0.181990 3.145776
0.989358 0.180949 3.141574
0.992728 0.180355 3.137011
0.995250 0.179910 3.132327
0.997430 0.179526 3.127593
0.999832 0.179102 3.122892
1.001892 0.178739 3.118141
1.004180 0.178335 3.113423
1.006354 0.177952 3.108689
1.008647 0.177548 3.103973
1.047652 0.170670 3.104820
1.056642 0.169085 3.101156
1.059967 0.168498 3.096635
1.156365 0.151501 3.086629
1.156436 0.151488 3.081673
1.156894 0.151408 3.076775
1.157223 0.151350 3.071854
1.157992 0.151214 3.067001
1.158627 0.151102 3.062123
1.159107 0.151018 3.057218
1.159933 0.150872 3.052367
1.133788 0.155482 3.043079
1.133067 0.155609 3.037944
1.132994 0.155622 3.032912
1.133564 0.155521 3.027983
1.133831 0.155474 3.023001
1.107353 0.160143 3.013504
1.108088 0.160013 3.008571
1.109114 0.159833 3.003686
1.110029 0.159671 2.998780
1.111509 0.159410 2.993968
1.112842 0.159175 2.989131
1.114465 0.158889 2.984342
1.115820 0.158650 2.979506
1.117307 0.158388 2.974691
1.118800 0.158125 2.969876
1.120556 0.157815 2.965107
1.122182 0.157528 2.960314
1.123854 0.157233 2.955528
1.125027 0.157027 2.950651
1.124960 0.157038 2.945549
1.091161 0.162998 2.934311
1.088859 0.163404 2.928763
1.183686 0.146684 2.925857
1.188416 0.145850 2.921676
1.183148 0.146778 2.915622
1.155023 0.151738 2.905239
1.149126 0.152777 2.899019
1.143712 0.153732 2.892876
1.142337 0.153975 2.887493
1.143172 0.153827 2.882529
1.144361 0.153618 2.877631
1.145608 0.153398 2.872743
1.147714 0.153026 2.868021
1.093108 0.162655 2.852192
1.093350 0.162612 2.847053
1.095026 0.162317 2.842193
1.098032 0.161787 2.837596
1.100148 0.161414 2.832824
1.099052 0.161607 2.827408
1.098986 0.161619 2.822193
1.099998 0.161440 2.817192
1.101333 0.161205 2.812255
1.103794 0.160771 2.807545
1.106272 0.160334 2.802840
1.108589 0.159925 2.798102
1.111800 0.159359 2.793549
1.115041 0.158787 2.789004
1.116357 0.158556 2.784059
1.117244 0.158399 2.779024
1.117591 0.158338 2.773873
1.118388 0.158197 2.768813
1.119207 0.158053 2.763756
1.121081 0.157722 2.758920
1.122233 0.157519 2.753930
1.123706 0.157260 2.749007
1.125265 0.156985 2.744101
1.126787 0.156716 2.739186
1.128026 0.156498 2.734208
1.129801 0.156185 2.729345
1.131623 0.155864 2.724492
1.132954 0.155629 2.719530
1.135541 0.155173 2.714844
1.142964 0.153864 2.711231
1.183311 0.146750 2.714959
1.188261 0.145877 2.710842
1.192635 0.145106 2.706601
1.190783 0.145432 2.700961
1.193897 0.144883 2.696437
1.203299 0.143225 2.693343
1.205005 0.142924 2.688507
1.202366 0.143390 2.682675
1.204090 0.143086 2.677838
1.240752 0.136621 2.681064
1.243472 0.136142 2.676488
1.246692 0.135574 2.672029
1.253776 0.134325 2.668474
1.298075 0.126514 2.673655
1.299933 0.126186 2.668922
1.303522 0.125553 2.664598
1.346587 0.117960 2.669641
1.347635 0.117775 2.664753
1.355261 0.116430 2.640862
1.321464 0.122390 2.627474
1.293034 0.127403 2.615332
1.287282 0.128417 2.608702
1.286560 0.128544 2.603297
1.286745 0.128511 2.598110
1.286899 0.128484 2.592912
1.287485 0.128381 2.587818
1.287367 0.128402 2.582546
1.287589 0.128363 2.577354
1.287595 0.128362 2.572104
1.263322 0.132641 2.560710
1.259170 0.133374 2.554375
1.258179 0.133548 2.548832
1.258672 0.133461 2.543664
1.259577 0.133302 2.538598
1.293008 0.127407 2.541906
1.272731 0.130982 2.531391
1.273885 0.130779 2.526393
1.275837 0.130435 2.521601
1.250070 0.134978 2.509566
1.245366 0.135808 2.503002
1.246277 0.135647 2.497902
1.247968 0.135349 2.493007
1.250512 0.134900 2.488336
1.288412 0.128217 2.493069
1.331777 0.120571 2.499328
1.300215 0.126136 2.485596
1.296533 0.126785 2.479294
1.269515 0.131550 2.466687
1.267212 0.131956 2.460715
1.265401 0.132275 2.454867
1.267333 0.131934 2.450032
1.272007 0.131110 2.445947
1.307889 0.124783 2.450430
1.311189 0.124201 2.446006
1.313594 0.123777 2.441335
1.315650 0.123415 2.436569
1.316479 0.123269 2.431461
1.318766 0.122865 2.426757
1.323203 0.122083 2.422656
1.329766 0.120926 2.419157
1.366960 0.114367 2.424304
1.370623 0.113721 2.420030
1.374098 0.113109 2.415705
1.295888 0.126899 2.377329
1.337767 0.119515 2.383980
1.341282 0.118895 2.379631
1.378362 0.112357 2.385007
1.382086 0.111700 2.380756
1.385537 0.111092 2.376429
1.388597 0.110552 2.371990
1.392372 0.109887 2.367763
1.395847 0.109274 2.363450
1.398894 0.108736 2.359014
1.402066 0.108177 2.354616
1.405116 0.107639 2.350183
1.407779 0.107170 2.345638
1.410707 0.106654 2.341172
1.413640 0.106136 2.336709
1.416051 0.105711 2.332091
1.419027 0.105187 2.327644
1.455641 0.098731 2.333394
1.457887 0.098335 2.328760
1.460029 0.097957 2.324095
1.495417 0.091717 2.329604
1.498583 0.091159 2.325285
1.502083 0.090542 2.321072
1.505300 0.089974 2.316774
1.508899 0.089340 2.312596
1.513907 0.088457 2.308859
1.551129 0.081893 2.315172
1.555473 0.081128 2.311270
1.567465 0.079013 2.283466
1.549884 0.082113 2.272573
1.550088 0.082077 2.267343
1.575652 0.077569 2.270265
1.580311 0.076748 2.266490
1.581134 0.076603 2.261478
1.581472 0.076543 2.256307
1.561016 0.080150 2.244364
1.558328 0.080624 2.238177
1.554093 0.081371 2.231474
1.552971 0.081569 2.225781
1.554862 0.081235 2.221074
1.556632 0.080923 2.216327
1.558638 0.080569 2.211658
1.560812 0.080186 2.207044
1.564633 0.079512 2.202979
1.567109 0.079076 2.198468
1.570423 0.078491 2.194239
1.572874 0.078059 2.189721
1.574840 0.077712 2.185041
1.579975 0.076807 2.181433
1.612901 0.071001 2.187262
1.619048 0.069917 2.184038
1.582647 0.076336 2.160943
1.577776 0.077195 2.153911
1.572219 0.078175 2.146629
1.571890 0.078233 2.141137
1.573671 0.077919 2.136371
1.578182 0.077123 2.132553
1.579767 0.076844 2.127720
1.532205 0.085230 2.105716
1.531003 0.085442 2.099855
1.530695 0.085497 2.094302
1.532345 0.085206 2.089434
1.534318 0.084858 2.084678
1.533801 0.084949 2.079040
1.530877 0.085464 2.072541
1.539862 0.083880 2.070277
1.543903 0.083168 2.066259
1.541826 0.083534 2.060052
1.540931 0.083692 2.054261
1.539687 0.083911 2.048338
1.540979 0.083683 2.043325
1.542887 0.083347 2.038534
1.544302 0.083097 2.033563
1.545840 0.082826 2.028635
1.547393 0.082552 2.023712
1.549249 0.082225 2.018898
1.551061 0.081905 2.014068
1.552943 0.081574 2.009262
1.558018 0.080679 2.005636
1.566541 0.079176 2.003294
1.566838 0.079123 1.997908
1.563743 0.079669 1.991254
1.556571 0.080934 1.983066
1.556894 0.080877 1.977667
1.537171 0.084355 1.964733
1.536700 0.084438 1.959007
1.536737 0.084431 1.953468
1.537081 0.084371 1.948040
1.536841 0.084413 1.942387
1.538311 0.084154 1.937380
1.514501 0.088352 1.922718
1.516593 0.087983 1.917920
1.549782 0.082131 1.925061
1.552065 0.081728 1.920368
1.554450 0.081308 1.915716
1.556836 0.080887 1.911063
1.559118 0.080485 1.906371
1.560761 0.080195 1.901431
1.563038 0.079793 1.896737
1.565001 0.079447 1.891920
1.567279 0.079046 1.887226
1.601126 0.073078 1.894946
1.603016 0.072744 1.890133
1.605062 0.072384 1.885380
1.606802 0.072077 1.880506
1.609181 0.071657 1.875886
1.612301 0.071107 1.871560
1.616526 0.070362 1.867679
1.620936 0.069585 1.863875
1.623857 0.069069 1.859479
1.624334 0.068985 1.854100
1.621470 0.069490 1.847369
1.599656 0.073337 1.832958
1.599084 0.073438 1.827116
1.599741 0.073322 1.821768
1.599183 0.073420 1.815922
1.599567 0.073352 1.810455
1.601893 0.072942 1.805781
1.606082 0.072204 1.801871
1.608090 0.071850 1.797068
1.586389 0.075676 1.782471
1.580129 0.076780 1.774218
1.579341 0.076919 1.768219
1.580026 0.076798 1.762827
1.580855 0.076652 1.757492
1.581931 0.076462 1.752257
1.586988 0.075571 1.748690
1.588350 0.075330 1.743575
1.580310 0.076748 1.734495
1.578303 0.077102 1.727943
1.580815 0.076659 1.723296
1.558975 0.080510 1.708307
1.556178 0.081003 1.701375
1.556843 0.080886 1.695911
1.556744 0.080903 1.690116
1.506285 0.089801 1.662712
1.446176 0.100399 1.631045
1.439826 0.101519 1.622423
1.435958 0.102201 1.614854
1.431955 0.102907 1.607215
1.405580 0.107558 1.589844
1.407967 0.107137 1.584936
1.377096 0.112580 1.565511
1.374803 0.112984 1.558520
1.373917 0.113141 1.552136
1.372644 0.113365 1.545575
1.373957 0.113134 1.540146
1.375694 0.112827 1.534903
1.380899 0.111910 1.531194
1.383326 0.111482 1.526259
1.385486 0.111101 1.521204
1.387641 0.110721 1.516147
1.389801 0.110340 1.511093
1.391550 0.110032 1.505853
1.382951 0.111548 1.495961
1.316160 0.123325 1.459830
1.297848 0.126554 1.445441
1.297155 0.126676 1.438984
1.296146 0.126854 1.432377
1.271581 0.131185 1.415048
1.274417 0.130685 1.410154
1.279916 0.129716 1.406478
1.286925 0.128480 1.403500
1.292699 0.127462 1.399966
1.328546 0.121141 1.410283
1.331239 0.120666 1.405375
1.333032 0.120350 1.400051
1.335094 0.119986 1.394851
1.306198 0.125081 1.375264
1.310825 0.124266 1.371224
1.341812 0.118802 1.379496
1.349999 0.117358 1.370998
1.352586 0.116902 1.366046
1.355915 0.116315 1.361445
1.355332 0.116418 1.354997
1.354595 0.116548 1.348471
1.319539 0.122729 1.325650
1.317779 0.123039 1.318585
1.322738 0.122165 1.314715
1.329595 0.120956 1.311758
1.337126 0.119628 1.271683
1.342536 0.118674 1.268057
1.336250 0.119782 1.258730
1.307082 0.124925 1.238194
1.337805 0.119508 1.246944
1.348874 0.117556 1.246102
1.266982 0.131996 1.199505
1.293869 0.127255 1.206405
1.293507 0.127319 1.199880
1.266651 0.132055 1.180215
1.268675 0.131698 1.174834
1.239141 0.136905 1.153736
1.236139 0.137435 1.145809
1.235738 0.137505 1.139172
1.235578 0.137534 1.132649
1.235753 0.137503 1.126288
1.235478 0.137551 1.119696
1.234499 0.137724 1.112742
1.224163 0.139546 1.101047
1.196392 0.144443 1.080483
1.198691 0.144038 1.075131
1.200990 0.143632 1.069779
1.203418 0.143204 1.064492
1.205594 0.142821 1.059077
1.181542 0.147062 1.040214
1.182123 0.146959 1.033948
1.183648 0.146690 1.028164
1.185770 0.146316 1.022686
1.188529 0.145830 1.017536
1.192295 0.145166 1.012910
1.195694 0.144566 1.008096
1.197392 0.144267 1.002398
1.198990 0.143985 0.996646
1.202348 0.143393 0.991813
1.260515 0.133137 1.015709
1.236660 0.137343 0.996649
1.241649 0.136463 0.992712
1.252102 0.134620 0.991665
1.335784 0.119865 1.029352
1.292042 0.127577 0.999709
1.253838 0.134314 0.972901
1.250827 0.134845 0.964728
1.251724 0.134687 0.958626
1.254151 0.134259 0.953339
1.256579 0.133830 0.948052
1.258631 0.133469 0.942563
1.260810 0.133085 0.937142
1.263238 0.132656 0.931854
1.238093 0.137090 0.911670
1.234862 0.137660 0.903286
1.236479 0.137375 0.897520
1.239401 0.136859 0.892462
1.241733 0.136448 0.887083
1.243836 0.136077 0.881579
1.245601 0.135766 0.875889
1.247565 0.135420 0.870306
1.249366 0.135102 0.864633
1.251973 0.134643 0.859402
1.256819 0.133788 0.855408
1.262279 0.132825 0.851758
1.266169 0.132140 0.847246
1.261962 0.132881 0.838239
1.262336 0.132815 0.831767
1.263294 0.132646 0.825616
1.264795 0.132382 0.819765
1.266488 0.132083 0.814019
1.267996 0.131817 0.808167
1.271286 0.131237 0.803316
1.274419 0.130685 0.798377
1.277044 0.130222 0.793154
1.280385 0.129633 0.788336
1.281900 0.129366 0.782485
1.309561 0.124488 0.791493
1.281187 0.129491 0.768644
1.230473 0.138434 0.712575
1.195178 0.144657 0.685452
1.195469 0.144606 0.678761
-0.000583 0.372674 3.446028
0.047214 0.355278 3.444406
0.052977 0.353180 3.439313
0.055388 0.352303 3.433940
0.058349 0.351225 3.428615
0.061749 0.349987 3.423329
0.067479 0.347902 3.418249
0.075468 0.344994 3.413374
0.082133 0.342568 3.408391
0.082948 0.342272 3.402887
0.081262 0.342885 3.397153
0.078745 0.343801 3.391335
0.120814 0.328489 3.389647
0.129318 0.325394 3.384882
0.138587 0.322021 3.380201
0.192965 0.302229 3.379832
0.246532 0.282732 3.379473
0.267853 0.274972 3.337799
0.527673 0.180405 3.348762
0.529360 0.179791 3.343668
0.529236 0.179836 3.338380
0.488861 0.194531 3.328735
0.493127 0.192979 3.323883
0.540472 0.175747 3.323765
0.543913 0.174494 3.318865
0.546513 0.173548 3.313873
0.548719 0.172745 3.308838
0.550539 0.172083 3.303759
0.551560 0.171711 3.298588
0.550038 0.172265 3.293123
0.551680 0.171667 3.288018
0.559073 0.168976 3.283583
0.562469 0.167740 3.278687
0.564550 0.166983 3.273637
0.567012 0.166087 3.268633
0.569218 0.165284 3.263598
0.571549 0.164435 3.258578
0.573630 0.163678 3.253528
0.575581 0.162968 3.248462
0.578043 0.162072 3.243459
0.580504 0.161176 3.238456
0.582710 0.160373 3.233422
0.584661 0.159663 3.228355
0.586867 0.158860 3.223320
0.588943 0.158104 3.218269
0.591025 0.157347 3.213218
0.593486 0.156451 3.208216
0.595692 0.155648 3.203181
0.598152 0.154753 3.198180
0.600488 0.153902 3.193162
0.603078 0.152960 3.188179
0.605413 0.152110 3.183162
0.647969 0.136621 3.183574
0.650556 0.135679 3.178627
0.653102 0.134753 3.173675
0.656101 0.133661 3.168787
0.658890 0.132646 3.163870
0.662102 0.131477 3.159014
0.665342 0.130298 3.154163
0.668424 0.129176 3.149292
0.718889 0.110808 3.151149
0.767715 0.093037 3.152858
0.810242 0.077558 3.153744
0.775617 0.090161 3.143542
0.777289 0.089552 3.138557
0.780293 0.088459 3.133767
0.782878 0.087518 3.128916
0.785657 0.086507 3.124094
0.827259 0.071365 3.125061
0.785033 0.086734 3.113528
0.877698 0.053006 3.122261
0.917496 0.038521 3.123135
0.881552 0.051604 3.112517
0.881343 0.051680 3.107317
0.846361 0.064412 3.096744
0.886358 0.049854 3.097747
0.891013 0.048160 3.093299
0.894524 0.046882 3.088675
0.897866 0.045666 3.084027
0.899863 0.044939 3.079168
0.902518 0.043973 3.074414
0.905323 0.042952 3.069684
0.907848 0.042033 3.064911
0.909979 0.041257 3.060074
0.912702 0.040266 3.055334
0.915333 0.039308 3.050580
0.954471 0.025063 3.051854
0.956922 0.024171 3.047105
0.959028 0.023404 3.042299
0.961479 0.022512 3.037551
0.963930 0.021620 3.032803
1.003491 0.007221 3.034349
1.007209 0.005868 3.029852
1.010773 0.004571 3.025332
1.014847 0.003088 3.020902
1.055628 -0.011755 3.022833
1.018834 0.001637 3.006193
1.022994 0.000123 3.001785
1.026833 -0.001274 2.997324
1.066500 -0.015712 2.999234
1.070873 -0.017304 2.994907
1.073830 -0.018380 2.990330
1.111231 -0.031993 2.991971
1.116036 -0.033742 2.987763
1.082283 -0.021457 2.976534
1.125349 -0.037131 2.974233
1.128128 -0.038143 2.969666
1.130187 -0.038892 2.964967
1.135621 -0.040870 2.960899
1.140817 -0.042761 2.956792
1.176331 -0.055687 2.958410
1.178157 -0.056352 2.953703
1.140005 -0.042466 2.941381
1.227655 -0.074368 2.943026
1.227793 -0.074418 2.938029
1.232093 -0.075983 2.933839
1.231029 -0.075596 2.928603
1.231324 -0.075703 2.923629
1.232098 -0.075985 2.918746
1.232354 -0.076078 2.913758
1.209557 -0.067781 2.904163
1.209813 -0.067874 2.899147
1.209547 -0.067777 2.894022
1.209330 -0.067698 2.888904
1.208822 -0.067513 2.883722
1.209004 -0.067579 2.878676
1.209068 -0.067602 2.873602
1.184175 -0.058542 2.863380
1.185236 -0.058928 2.858482
1.186496 -0.059387 2.853624
1.188483 -0.060110 2.848916
1.189962 -0.060649 2.844102
1.191099 -0.061062 2.839214
1.192002 -0.061391 2.834275
1.193050 -0.061772 2.829365
1.195004 -0.062483 2.824646
1.198443 -0.063735 2.820246
1.230461 -0.075389 2.822007
1.246364 -0.081177 2.799907
1.283793 -0.094800 2.803066
1.286900 -0.095931 2.798670
1.256501 -0.084867 2.786806
1.258729 -0.085678 2.782186
1.261941 -0.086847 2.777788
1.263598 -0.087450 2.773041
1.262048 -0.086886 2.767565
1.259524 -0.085967 2.761862
1.228844 -0.074801 2.749712
1.223027 -0.072683 2.743209
1.223345 -0.072799 2.738105
1.224717 -0.073298 2.733242
1.227606 -0.074350 2.728729
1.231007 -0.075588 2.724338
1.236611 -0.077627 2.720466
1.273470 -0.091043 2.723953
1.275263 -0.091696 2.719223
1.241886 -0.079547 2.706153
1.240965 -0.079212 2.700743
1.242661 -0.079829 2.695952
1.245225 -0.080763 2.691370
1.247285 -0.081513 2.686667
1.249716 -0.082397 2.682054
1.251905 -0.083194 2.677382
1.254822 -0.084256 2.672889
1.257955 -0.085396 2.668450
1.261200 -0.086577 2.664040
1.264944 -0.087940 2.659756
1.267955 -0.089036 2.655294
1.269852 -0.089726 2.650556
1.270463 -0.089948 2.645498
1.271879 -0.090464 2.640638
1.273222 -0.090953 2.635758
1.273619 -0.091097 2.630638
1.274948 -0.091581 2.625752
1.276719 -0.092226 2.620976
1.278946 -0.093036 2.616316
1.281526 -0.093975 2.611747
1.286680 -0.095851 2.607841
1.291085 -0.097454 2.603748
1.290881 -0.097380 2.598465
1.295031 -0.098891 2.594310
1.331460 -0.112150 2.598589
1.333621 -0.112936 2.593952
1.303794 -0.102080 2.580899
1.301386 -0.101204 2.575026
1.303630 -0.102020 2.570376
1.305684 -0.102768 2.565676
1.307544 -0.103445 2.560924
1.309315 -0.104089 2.556148
1.311126 -0.104749 2.551382
1.312941 -0.105409 2.546617
1.314631 -0.106024 2.541818
1.316851 -0.106832 2.537162
1.319489 -0.107792 2.532620
1.322160 -0.108765 2.528088
1.324710 -0.109693 2.523525
1.327390 -0.110668 2.518998
1.329540 -0.111451 2.514325
1.331778 -0.112265 2.509678
1.334249 -0.113165 2.505095
1.333573 -0.112919 2.499633
1.342216 -0.116065 2.480951
1.348314 -0.118284 2.477401
1.348690 -0.118421 2.472225
1.350671 -0.119142 2.467506
1.353057 -0.120010 2.462904
1.354623 -0.120580 2.458065
1.356068 -0.121106 2.453190
1.357398 -0.121590 2.448280
1.358853 -0.122120 2.443406
1.360261 -0.122632 2.438517
1.361876 -0.123220 2.433687
1.363207 -0.123705 2.428772
1.364177 -0.124057 2.423749
1.365668 -0.124600 2.418879
1.366937 -0.125062 2.413942
1.368139 -0.125500 2.408983
1.369188 -0.125881 2.403976
1.369571 -0.126021 2.398767
1.370243 -0.126266 2.393643
1.341761 -0.115899 2.379695
1.374923 -0.127969 2.384397
1.377621 -0.128951 2.379884
1.348622 -0.118396 2.365687
1.350696 -0.119151 2.360954
1.384645 -0.131507 2.366023
1.388125 -0.132774 2.361756
1.391098 -0.133856 2.357334
1.393538 -0.134744 2.352749
1.396232 -0.135725 2.348243
1.398796 -0.136658 2.343698
1.401729 -0.137725 2.339270
1.404152 -0.138607 2.334683
1.406332 -0.139401 2.330020
1.408554 -0.140210 2.325371
1.410934 -0.141076 2.320772
1.412989 -0.141824 2.316070
1.416997 -0.143283 2.311993
1.419915 -0.144345 2.307570
1.421597 -0.144957 2.302751
1.423407 -0.145616 2.297973
1.426067 -0.146584 2.293469
1.428730 -0.147553 2.288967
1.431269 -0.148477 2.284427
1.433812 -0.149403 2.279889
1.436236 -0.150285 2.275312
1.438788 -0.151214 2.270779
1.440845 -0.151963 2.266083
1.443392 -0.152890 2.261549
1.445924 -0.153811 2.257012
1.448981 -0.154924 2.252650
1.451550 -0.155859 2.248127
1.453327 -0.156506 2.243340
1.455639 -0.157347 2.238732
1.457705 -0.158099 2.234042
1.459634 -0.158801 2.229306
1.461563 -0.159503 2.224569
1.463738 -0.160295 2.219915
1.497582 -0.172613 2.226066
1.499622 -0.173356 2.221399
1.501368 -0.173991 2.216632
1.476793 -0.165046 2.202803
1.476054 -0.164777 2.197150
1.477087 -0.165153 2.192104
1.478884 -0.165807 2.187321
1.480526 -0.166405 2.182484
1.481993 -0.166939 2.177585
1.484587 -0.167883 2.173079
1.518224 -0.180126 2.179486
1.555919 -0.193846 2.187390
1.488293 -0.169232 2.147274
1.495658 -0.171913 2.144467
1.496004 -0.172039 2.139161
1.496963 -0.172388 2.134070
1.498048 -0.172783 2.129023
1.497897 -0.172728 2.123528
1.498452 -0.172930 2.118284
1.500061 -0.173515 2.113419
1.504198 -0.175021 2.109473
1.507111 -0.176081 2.105086
1.507842 -0.176348 2.099900
1.509414 -0.176920 2.095021
1.512477 -0.178034 2.090690
1.515043 -0.178968 2.086177
1.515031 -0.178964 2.080711
1.485598 -0.168251 2.064314
1.514584 -0.178801 2.069608
1.517936 -0.180021 2.065385
1.520512 -0.180959 2.060874
1.523004 -0.181866 2.056332
1.525571 -0.182800 2.051819
1.529338 -0.184171 2.047761
1.531992 -0.185137 2.043285
1.534168 -0.185929 2.038628
1.536340 -0.186720 2.033970
1.538278 -0.187425 2.029224
1.540217 -0.188131 2.024477
1.542472 -0.188952 2.019851
1.544453 -0.189673 2.015120
1.545655 -0.190110 2.010088
1.546942 -0.190578 2.005088
1.547646 -0.190835 1.999859
1.549987 -0.191687 1.995265
1.553523 -0.192974 1.991138
1.557508 -0.194424 1.987190
1.560167 -0.195392 1.982725
1.528202 -0.183758 1.964629
1.530548 -0.184612 1.960007
1.533631 -0.185734 1.955676
1.535891 -0.186557 1.951022
1.570825 -0.199271 1.959372
1.574894 -0.200752 1.955476
1.578470 -0.202054 1.951386
1.581461 -0.203143 1.947065
1.583990 -0.204063 1.942559
1.586416 -0.204946 1.938014
1.589193 -0.205957 1.933611
1.591609 -0.206836 1.929063
1.594417 -0.207858 1.924675
1.626463 -0.219522 1.932212
1.628407 -0.220230 1.927506
1.630647 -0.221045 1.922921
1.632886 -0.221860 1.918337
1.637042 -0.223373 1.914542
1.644245 -0.225994 1.912012
1.646865 -0.226948 1.907594
1.641466 -0.224983 1.899846
1.642811 -0.225472 1.894891
1.645654 -0.226507 1.890559
1.648187 -0.227429 1.886100
1.575166 -0.200851 1.833097
1.583090 -0.203736 1.830839
1.549211 -0.191404 1.805160
1.586054 -0.204814 1.815245
1.590289 -0.206356 1.811434
1.617635 -0.216309 1.817557
1.595247 -0.208160 1.802314
1.571990 -0.199695 1.786641
1.572564 -0.199904 1.781230
1.572331 -0.199819 1.775465
1.572572 -0.199907 1.769902
1.573757 -0.200339 1.764746
1.574239 -0.200514 1.759280
1.578302 -0.201993 1.755382
1.584429 -0.204223 1.752395
1.614489 -0.215164 1.759964
1.618196 -0.216513 1.721983
1.596214 -0.208512 1.706422
1.596566 -0.208640 1.700874
1.595112 -0.208111 1.694506
1.596224 -0.208516 1.689292
1.598081 -0.209192 1.684414
1.599807 -0.209820 1.679476
1.601425 -0.210409 1.674488
1.603390 -0.211124 1.669658
1.605121 -0.211754 1.664720
1.607091 -0.212471 1.659891
1.609487 -0.213343 1.655258
1.613889 -0.214945 1.651552
1.615937 -0.215691 1.646762
1.603401 -0.211128 1.635201
1.560580 -0.195543 1.609515
