ply
format ascii 1.0
element vertex 1710
property float x
property float y
property float z
end_header
2.497727 -0.523167 2.429198
2.499820 -0.522966 2.425397
2.499809 -0.522292 2.420848
2.491707 -0.519796 2.413405
2.495197 -0.519908 2.410093
2.495352 -0.519269 2.405586
2.405973 -0.498443 2.368834
2.506785 -0.520497 2.400577
2.501466 -0.518622 2.394087
2.518764 -0.521854 2.395797
2.520140 -0.521492 2.391738
2.520892 -0.520987 2.387451
2.526335 -0.521545 2.384879
2.509870 -0.517141 2.374267
2.517460 -0.518183 2.372478
2.504948 -0.514668 2.363275
2.527838 -0.519184 2.367155
2.515696 -0.515750 2.358066
2.541407 -0.520914 2.363047
2.588834 -0.531025 2.376190
2.532422 -0.517517 2.350531
2.540132 -0.518594 2.348835
2.552083 -0.520640 2.348750
2.550728 -0.519655 2.343659
2.550751 -0.518982 2.339083
2.560694 -0.520575 2.338271
2.556361 -0.518907 2.332038
2.557581 -0.518508 2.327913
2.557248 -0.517753 2.323191
2.564502 -0.518734 2.321378
2.578456 -0.521252 2.322155
2.555664 -0.515348 2.308770
2.567352 -0.517349 2.308682
2.573294 -0.518032 2.306383
2.577418 -0.518300 2.303385
2.579141 -0.518016 2.299455
2.572263 -0.515753 2.292158
2.582971 -0.517536 2.291743
2.580736 -0.516339 2.286253
2.577061 -0.514810 2.280187
2.577999 -0.514343 2.275933
2.580459 -0.514227 2.272281
2.584311 -0.514432 2.269184
2.587005 -0.514371 2.265628
2.583306 -0.512831 2.259518
2.580456 -0.511486 2.253736
2.575909 -0.509746 2.247261
2.566623 -0.506905 2.238862
2.563492 -0.505488 2.232926
2.560140 -0.504019 2.226889
2.556121 -0.502393 2.220571
2.553124 -0.501003 2.214655
2.549355 -0.499431 2.208414
2.547666 -0.498342 2.203011
2.543619 -0.496702 2.196633
2.535394 -0.494087 2.188522
2.531756 -0.492538 2.182281
2.535236 -0.492648 2.178974
2.527035 -0.490032 2.170824
2.518711 -0.487383 2.162600
2.519295 -0.486813 2.158069
2.511783 -0.484349 2.150150
2.503340 -0.481664 2.141819
2.493733 -0.478702 2.132977
2.483691 -0.475635 2.123926
2.468956 -0.471463 2.112865
2.450117 -0.466321 2.100031
2.442650 -0.463845 2.091979
2.433045 -0.460864 2.082997
2.418885 -0.456806 2.072045
2.400994 -0.451865 2.059460
2.392954 -0.449239 2.051059
2.382447 -0.446027 2.041574
2.368015 -0.441885 2.030368
2.363316 -0.440037 2.023335
2.357505 -0.437923 2.015804
2.342312 -0.433588 2.004179
2.347777 -0.434136 2.001515
2.319280 -0.426643 1.984027
2.323663 -0.426931 1.980866
2.295095 -0.419407 1.963248
2.283581 -0.415919 1.953066
2.269625 -0.411847 1.941776
2.254045 -0.407383 1.929733
2.254752 -0.406787 1.924871
2.257460 -0.406665 1.920894
2.239266 -0.401568 1.907607
2.230895 -0.398804 1.898661
2.234254 -0.398833 1.894944
2.237472 -0.398829 1.891166
2.213664 -0.392374 1.875229
2.214566 -0.391812 1.870381
2.201703 -0.387960 1.859306
2.176406 -0.381128 1.842560
2.193150 -0.384352 1.844857
2.186597 -0.381999 1.836574
2.184480 -0.380707 1.830297
2.175428 -0.377749 1.820835
2.164651 -0.374374 1.810557
2.155101 -0.371289 1.800814
2.140018 -0.366871 1.788493
2.140965 -0.366302 1.783542
2.130398 -0.362962 1.773254
2.123952 -0.360610 1.764851
2.119354 -0.358700 1.757288
2.122480 -0.358652 1.753315
2.112692 -0.355486 1.743302
2.110484 -0.354147 1.736817
2.118994 -0.355398 1.735361
2.119270 -0.354659 1.730037
2.121220 -0.354324 1.725501
2.218208 -0.377009 1.765969
2.113159 -0.350755 1.710748
2.122677 -0.352254 1.709796
2.137170 -0.354963 1.711234
2.115484 -0.348888 1.695402
2.105979 -0.345766 1.685353
2.074055 -0.337187 1.664508
2.053250 -0.331302 1.648938
2.042146 -0.327773 1.637998
2.043789 -0.327346 1.633194
2.044637 -0.326725 1.628003
2.036812 -0.323987 1.618593
2.035334 -0.322795 1.612252
2.031909 -0.321126 1.604951
2.031056 -0.320084 1.598897
2.008914 -0.313831 1.582387
2.005604 -0.312182 1.575085
1.992313 -0.308084 1.562848
1.995262 -0.307964 1.558601
1.996755 -0.307487 1.553633
1.992598 -0.305622 1.545859
1.990408 -0.304239 1.539048
1.992366 -0.303874 1.534296
1.969946 -0.297509 1.517355
1.975512 -0.298027 1.514380
1.965685 -0.294754 1.503681
1.947180 -0.289336 1.488585
1.936192 -0.285766 1.477233
1.933988 -0.284360 1.470293
1.937396 -0.284340 1.466187
1.941310 -0.284446 1.462340
1.943170 -0.284044 1.457451
1.945085 -0.283655 1.452588
1.957303 -0.285820 1.452996
1.941027 -0.280921 1.438815
1.952935 -0.283010 1.439075
1.964177 -0.284938 1.439015
1.956369 -0.282133 1.429140
1.963461 -0.283031 1.426951
1.958997 -0.281055 1.418780
1.959699 -0.280363 1.413278
1.960410 -0.279672 1.407777
1.960960 -0.278941 1.402187
1.958204 -0.277384 1.394863
1.964576 -0.278105 1.392314
1.969392 -0.278438 1.388958
1.963670 -0.276137 1.380053
1.970116 -0.276878 1.377556
1.975132 -0.277262 1.374311
1.980570 -0.277753 1.371297
1.984649 -0.277905 1.367566
1.970403 -0.273457 1.354075
1.970081 -0.272501 1.347981
1.972921 -0.272339 1.343572
1.977396 -0.272588 1.340042
1.980643 -0.272528 1.335856
1.983781 -0.272442 1.331613
1.979169 -0.270402 1.323187
1.986668 -0.271415 1.321299
1.982434 -0.269468 1.313058
1.977557 -0.267356 1.304452
1.986578 -0.268754 1.303401
1.994544 -0.269888 1.301789
1.997414 -0.269734 1.297402
2.003323 -0.270350 1.294682
1.997659 -0.268034 1.285610
2.005885 -0.269238 1.284170
2.008337 -0.268978 1.279556
2.009092 -0.268287 1.274003
2.001117 -0.265377 1.263606
2.002202 -0.264768 1.258217
2.006536 -0.264985 1.254636
2.012896 -0.265719 1.252189
2.013118 -0.264890 1.246319
2.017709 -0.265174 1.242892
2.014435 -0.263452 1.235052
2.008660 -0.261088 1.225790
2.006745 -0.259708 1.218686
2.006772 -0.258824 1.212669
2.015557 -0.260180 1.211610
1.987303 -0.252051 1.189530
2.004127 -0.255466 1.193032
2.001886 -0.253996 1.185695
2.001026 -0.252878 1.179135
1.999346 -0.251549 1.172098
1.990645 -0.248413 1.161019
1.983586 -0.245696 1.150858
1.962272 -0.239305 1.132455
1.288432 -0.496632 3.496491
1.270301 -0.492272 3.490354
1.260857 -0.489678 3.484976
1.243775 -0.485524 3.478877
1.483907 -0.529311 3.466051
1.485390 -0.528966 3.461818
1.493375 -0.529953 3.458234
1.491176 -0.528853 3.453632
1.496051 -0.529204 3.449742
1.494139 -0.528161 3.445162
1.497891 -0.528281 3.441159
1.503869 -0.528860 3.437391
1.509970 -0.529465 3.433642
1.526112 -0.532139 3.430960
1.521420 -0.530523 3.426082
1.532918 -0.532243 3.422931
1.535149 -0.532054 3.418792
1.546408 -0.533729 3.415638
1.556773 -0.535221 3.412400
1.562351 -0.535726 3.408646
1.564317 -0.535484 3.404495
1.586113 -0.539346 3.402570
1.594450 -0.540426 3.399154
1.607384 -0.542459 3.396273
1.607379 -0.541814 3.391925
1.616040 -0.542965 3.388575
1.632481 -0.545732 3.386140
1.639463 -0.546539 3.382621
1.643584 -0.546752 3.378772
1.649220 -0.547281 3.375106
1.737504 -0.563737 3.372802
1.738456 -0.563302 3.368646
1.735059 -0.561960 3.363954
1.742096 -0.562793 3.360543
1.740614 -0.561850 3.356080
1.746409 -0.562425 3.352524
1.752737 -0.563112 3.349041
1.753299 -0.562595 3.344832
1.765421 -0.564497 3.342099
1.768014 -0.564405 3.338156
1.773563 -0.564933 3.334597
1.778572 -0.565349 3.330973
1.778051 -0.564606 3.326628
1.776199 -0.563583 3.322103
1.769871 -0.561619 3.316977
1.776382 -0.562350 3.313553
1.789266 -0.564422 3.310995
1.791742 -0.564308 3.307045
1.767244 -0.558516 3.299420
1.784940 -0.561604 3.297536
1.788440 -0.561704 3.293719
1.772663 -0.557740 3.287229
1.784327 -0.559561 3.284541
1.808080 -0.563936 3.283567
1.808573 -0.563403 3.279343
1.771790 -0.554992 3.269817
1.799654 -0.560242 3.269469
1.805661 -0.560874 3.266022
1.818560 -0.562966 3.263578
1.816073 -0.561801 3.258913
1.824415 -0.562931 3.255825
1.830970 -0.563683 3.252485
1.832040 -0.563272 3.248340
1.896484 -0.576318 3.253632
1.852793 -0.566404 3.242833
1.858296 -0.566937 3.239367
1.864113 -0.567538 3.235953
1.873114 -0.568817 3.233032
1.879684 -0.569581 3.229749
1.884850 -0.570046 3.226258
1.887293 -0.569931 3.222350
1.896694 -0.571302 3.219527
1.873491 -0.565713 3.211611
1.909006 -0.572661 3.212896
1.908410 -0.571899 3.208522
1.915661 -0.572815 3.205393
1.919607 -0.573024 3.201743
1.922612 -0.573033 3.197946
1.935307 -0.575118 3.195717
1.940409 -0.575578 3.192271
1.951548 -0.577334 3.189818
1.959717 -0.578454 3.186892
1.974394 -0.580974 3.185052
1.985576 -0.582746 3.182653
1.992567 -0.583619 3.179571
1.999454 -0.584471 3.176480
2.050822 -0.594900 3.180897
2.051499 -0.594422 3.176808
2.054515 -0.594449 3.173116
2.059080 -0.594809 3.169690
2.064948 -0.595452 3.166493
2.055539 -0.592797 3.160660
2.061711 -0.593505 3.157516
2.161092 -0.614363 3.170663
2.076903 -0.595540 3.151749
2.162371 -0.613414 3.162621
2.059424 -0.590507 3.140228
2.068180 -0.591777 3.137557
2.082904 -0.594342 3.135966
2.105057 -0.598523 3.135734
2.056081 -0.587269 3.122677
2.049337 -0.585174 3.117203
2.088289 -0.593008 3.120056
2.154887 -0.606864 3.128045
2.082565 -0.590509 3.110542
2.087360 -0.590924 3.107190
2.111589 -0.595574 3.107460
2.098384 -0.592070 3.100770
2.099816 -0.591754 3.096802
2.139194 -0.599719 3.099994
2.145988 -0.600579 3.097075
2.163633 -0.603811 3.096231
2.169934 -0.604567 3.093243
2.155446 -0.600776 3.086267
2.152578 -0.599525 3.081505
2.063568 -0.579404 3.060021
2.119404 -0.591004 3.066608
2.145045 -0.595997 3.067379
2.135530 -0.593282 3.061276
2.145742 -0.594895 3.059050
2.148632 -0.594902 3.055386
2.144340 -0.593330 3.050292
2.144403 -0.592714 3.046058
2.142514 -0.591669 3.041429
2.139258 -0.590321 3.036516
2.136295 -0.589036 3.031653
2.142360 -0.589741 3.028621
2.144160 -0.589505 3.024724
2.139298 -0.587799 3.019456
2.141450 -0.587641 3.015624
2.135543 -0.585701 3.010122
2.139919 -0.586033 3.006746
2.124155 -0.581909 2.999162
2.130820 -0.582747 2.996258
2.133120 -0.582619 2.992441
2.134966 -0.582390 2.988529
2.138928 -0.582630 2.985066
2.140327 -0.582303 2.981060
2.143858 -0.582448 2.977510
2.135750 -0.580008 2.971453
2.138009 -0.579870 2.967623
2.141889 -0.580092 2.964145
2.145706 -0.580301 2.960656
2.146618 -0.579864 2.956534
2.143679 -0.578568 2.951563
2.146806 -0.578623 2.947923
2.145294 -0.577643 2.943256
2.152088 -0.578517 2.940432
2.151046 -0.577642 2.935865
2.152088 -0.577232 2.931760
2.153723 -0.576954 2.927786
2.152906 -0.576127 2.923257
2.156811 -0.576357 2.919796
2.145497 -0.573176 2.912865
2.163979 -0.576674 2.912738
2.171291 -0.577670 2.910070
2.177452 -0.578408 2.907146
2.205186 -0.583995 2.909234
2.196720 -0.581451 2.902940
2.178541 -0.576719 2.894355
2.179541 -0.576299 2.890235
2.175802 -0.574811 2.884996
2.177869 -0.574629 2.881119
2.173108 -0.572908 2.875622
2.171759 -0.571955 2.870925
2.169417 -0.570777 2.865984
2.167944 -0.569794 2.861244
2.169667 -0.569533 2.857268
2.178657 -0.570914 2.855051
2.167565 -0.567754 2.847966
2.174685 -0.568713 2.845300
2.184999 -0.570398 2.843425
2.205364 -0.574363 2.844036
2.215061 -0.575913 2.842049
2.222903 -0.577045 2.839617
2.220787 -0.575916 2.834720
2.214144 -0.573758 2.828686
2.234373 -0.577707 2.829366
2.240626 -0.578482 2.826566
2.192226 -0.566815 2.809984
2.248815 -0.579051 2.819898
2.261633 -0.581326 2.818787
2.267587 -0.582037 2.815945
2.271444 -0.582271 2.812573
2.254505 -0.577756 2.803860
2.266645 -0.579881 2.802613
2.256112 -0.576825 2.795514
2.243148 -0.573209 2.787759
2.264967 -0.577551 2.789048
2.258690 -0.575463 2.783020
2.270934 -0.577618 2.781842
2.272631 -0.577357 2.777903
2.282401 -0.578948 2.776099
2.296681 -0.581578 2.775507
2.287400 -0.578797 2.768660
2.288551 -0.578411 2.764581
2.290381 -0.578181 2.760683
2.291880 -0.577875 2.756696
2.290390 -0.576881 2.751899
2.290241 -0.576194 2.747459
2.289490 -0.575368 2.742851
2.287224 -0.574192 2.737825
2.280169 -0.571908 2.731477
2.280946 -0.571432 2.727267
2.276305 -0.569703 2.721558
2.277747 -0.569379 2.717522
2.273100 -0.567645 2.711792
2.274612 -0.567336 2.707767
2.279931 -0.567909 2.704806
2.235538 -0.556955 2.687892
2.290056 -0.568939 2.698758
2.235140 -0.555529 2.678786
2.227656 -0.553123 2.672159
2.227549 -0.552429 2.667615
2.273841 -0.562527 2.676319
2.277415 -0.562695 2.672865
2.293581 -0.565796 2.673036
2.312570 -0.569559 2.674048
2.362497 -0.580541 2.684050
2.322308 -0.570511 2.667969
2.330782 -0.571829 2.665988
2.326537 -0.570178 2.660300
2.328660 -0.570014 2.656469
2.326692 -0.568893 2.651433
2.327606 -0.568446 2.647241
2.324353 -0.567022 2.641812
2.322608 -0.565950 2.636822
2.324163 -0.565651 2.632807
2.321885 -0.564452 2.627645
2.329999 -0.565692 2.625594
2.364165 -0.573053 2.631402
2.355266 -0.570302 2.624260
2.342445 -0.566624 2.615907
2.357017 -0.569389 2.615857
2.365728 -0.570777 2.614042
2.370962 -0.571348 2.611177
2.379682 -0.572742 2.609388
2.377473 -0.571559 2.604246
2.380649 -0.571647 2.600759
2.383596 -0.571681 2.597204
2.385560 -0.571482 2.593345
2.392653 -0.572497 2.591086
2.399193 -0.573382 2.588664
2.400114 -0.572938 2.584487
2.403714 -0.573128 2.581151
2.398202 -0.571159 2.574939
2.396294 -0.570042 2.569855
2.391333 -0.568199 2.563792
2.392652 -0.567846 2.559719
2.395709 -0.567906 2.556200
2.385304 -0.564765 2.548362
2.387453 -0.564607 2.544542
2.391113 -0.564809 2.541209
2.399228 -0.566074 2.539323
2.411901 -0.568427 2.538930
2.427540 -0.571490 2.539526
2.429126 -0.571203 2.535553
2.388660 -0.560871 2.517790
2.386953 -0.559790 2.512690
2.384197 -0.558457 2.507237
2.387380 -0.558544 2.503740
2.388451 -0.558126 2.499545
2.383355 -0.556230 2.493293
2.382944 -0.555455 2.488592
2.383768 -0.554975 2.484300
2.392097 -0.556297 2.482527
2.394372 -0.556166 2.478727
2.411623 -0.559636 2.479990
2.448804 -0.567904 2.488040
2.435094 -0.563933 2.478856
2.456942 -0.568522 2.481768
2.457906 -0.568084 2.477576
2.456284 -0.567022 2.472494
2.450096 -0.564857 2.465833
2.464559 -0.567676 2.466284
2.474891 -0.569500 2.465330
2.452127 -0.563326 2.452902
2.447276 -0.561478 2.446661
2.457731 -0.563333 2.445752
2.464961 -0.564408 2.443730
2.459614 -0.562438 2.437300
2.472245 -0.564825 2.437190
2.478449 -0.565655 2.434830
2.478061 -0.564887 2.430143
2.481663 -0.565087 2.426869
2.480212 -0.564059 2.421798
2.479951 -0.563319 2.417144
2.484009 -0.563630 2.414034
2.482102 -0.562489 2.408784
2.482268 -0.561852 2.404273
2.482821 -0.561308 2.399898
2.479506 -0.559821 2.394117
2.478927 -0.559000 2.389321
2.477739 -0.558029 2.384296
2.480703 -0.558072 2.380784
2.477982 -0.556725 2.375189
2.483679 -0.557437 2.372680
2.484962 -0.557069 2.368550
2.480352 -0.555256 2.362239
2.484952 -0.555700 2.359331
2.493056 -0.557004 2.357731
2.500055 -0.558040 2.355732
2.496245 -0.556421 2.349699
2.504751 -0.557828 2.348275
2.502837 -0.556673 2.342945
2.509120 -0.557536 2.340698
2.520129 -0.559564 2.340248
2.516868 -0.558077 2.334404
2.534778 -0.561810 2.336601
2.533723 -0.560868 2.331598
2.531988 -0.559756 2.326329
2.538774 -0.560750 2.324320
2.541870 -0.560832 2.320902
2.548147 -0.561702 2.318712
2.542384 -0.559592 2.311877
2.536223 -0.557381 2.304870
2.542306 -0.558203 2.302607
2.535386 -0.555800 2.295282
2.538041 -0.555772 2.291682
2.563113 -0.561311 2.296870
2.565245 -0.561157 2.293091
2.554784 -0.557870 2.284349
2.558652 -0.558146 2.281243
2.561757 -0.558231 2.277838
2.561751 -0.557543 2.273201
2.561878 -0.556887 2.268611
2.557608 -0.555133 2.262261
2.552073 -0.553061 2.255391
2.559234 -0.554159 2.253603
2.566777 -0.555353 2.251980
2.560997 -0.553217 2.244990
2.557971 -0.551768 2.239099
2.555559 -0.550471 2.233445
2.570247 -0.553458 2.234741
2.551378 -0.548034 2.222372
2.545478 -0.545857 2.215263
2.534742 -0.542464 2.206154
2.547754 -0.545033 2.206784
2.542636 -0.543048 2.199962
2.536731 -0.540863 2.192799
2.533536 -0.539357 2.186742
2.529222 -0.537567 2.180208
2.520875 -0.534760 2.171981
2.513995 -0.532318 2.164344
2.513100 -0.531385 2.159194
2.506693 -0.529058 2.151723
2.501023 -0.526915 2.144544
2.493366 -0.524267 2.136509
2.487293 -0.522016 2.129123
2.482643 -0.520124 2.122324
2.476203 -0.517775 2.114748
2.473992 -0.516496 2.108957
2.475736 -0.516219 2.104847
2.460260 -0.511570 2.093356
2.426140 -0.502181 2.073813
2.419749 -0.499828 2.066139
2.397583 -0.493460 2.051631
2.399623 -0.493243 2.047552
2.331826 -0.475244 2.013153
2.358884 -0.481391 2.019887
2.348345 -0.477959 2.010269
2.337801 -0.474523 2.000622
2.336002 -0.473315 1.994781
2.249311 -0.450420 1.951607
2.307855 -0.464620 1.972253
2.304823 -0.463088 1.965814
2.302542 -0.461747 1.959696
2.284691 -0.456417 1.946653
2.273938 -0.452900 1.936726
2.263463 -0.449449 1.926895
2.263969 -0.448812 1.921948
2.256953 -0.446243 1.913624
2.255468 -0.445092 1.907767
2.255055 -0.444216 1.902384
2.254501 -0.443302 1.896932
2.268245 -0.446068 1.897950
2.238673 -0.437680 1.879323
2.289539 -0.450015 1.897246
2.221606 -0.431725 1.861058
2.216844 -0.429715 1.853615
2.205775 -0.426075 1.843264
2.197344 -0.423111 1.834095
2.194386 -0.421560 1.827425
2.185865 -0.418567 1.818173
2.166420 -0.412742 1.803837
2.152017 -0.408216 1.791793
2.142267 -0.404891 1.781877
2.143817 -0.404493 1.777205
2.136542 -0.401804 1.768405
2.130365 -0.399397 1.760098
2.134017 -0.399543 1.756391
2.128999 -0.397433 1.748602
2.141458 -0.399870 1.749050
2.155559 -0.402738 1.750298
2.136139 -0.396874 1.735668
2.134455 -0.395628 1.729424
2.137413 -0.395592 1.725384
2.139939 -0.395443 1.721139
2.148560 -0.396887 1.719814
2.147546 -0.395814 1.713877
2.114641 -0.386396 1.692582
2.097817 -0.381177 1.678965
2.087567 -0.377673 1.668483
2.031509 -0.362156 1.635765
2.021671 -0.358744 1.625373
2.004772 -0.353474 1.611514
2.054244 -0.365630 1.630017
2.005494 -0.351987 1.600557
1.990528 -0.347211 1.587552
1.988988 -0.345963 1.581109
1.980540 -0.342895 1.571253
1.975332 -0.340676 1.562972
1.970989 -0.338683 1.555101
1.965948 -0.336503 1.546869
1.978975 -0.339092 1.547609
1.977185 -0.337769 1.540984
1.972113 -0.335577 1.532709
1.972138 -0.334731 1.526970
1.968160 -0.332825 1.519216
1.973764 -0.333454 1.516269
1.961936 -0.329464 1.504536
1.949486 -0.325304 1.492455
1.932939 -0.320052 1.478262
1.935751 -0.319934 1.473860
1.937674 -0.319580 1.469006
1.969912 -0.327288 1.479622
1.959030 -0.323532 1.468252
1.965162 -0.324301 1.465573
1.951156 -0.319707 1.452553
1.948159 -0.318041 1.445166
1.951432 -0.318047 1.441003
1.960288 -0.319543 1.439731
1.965418 -0.320046 1.436542
1.965975 -0.319328 1.430982
1.966666 -0.318645 1.425487
1.967291 -0.317943 1.419954
1.964023 -0.316199 1.412378
1.967535 -0.316269 1.408347
1.978313 -0.318289 1.408137
1.966398 -0.314221 1.395990
1.972118 -0.314884 1.393122
1.945795 -0.306937 1.373301
1.975863 -0.314145 1.383328
1.983756 -0.315395 1.381630
1.986681 -0.315309 1.377297
1.887149 -0.287617 1.318243
1.973603 -0.310034 1.358503
1.990666 -0.313760 1.361737
1.992495 -0.313378 1.356814
1.993421 -0.312752 1.351404
1.990045 -0.310963 1.343666
1.943006 -0.297360 1.312279
1.927993 -0.292408 1.298146
1.983686 -0.306603 1.322417
1.991053 -0.307718 1.320482
1.997097 -0.308475 1.317836
2.001323 -0.308741 1.314204
1.994190 -0.305922 1.304345
1.998737 -0.306274 1.300884
2.003025 -0.306557 1.297286
2.004086 -0.305961 1.291910
1.997134 -0.303184 1.282097
1.990919 -0.300604 1.272669
2.024293 -0.308815 1.285226
2.025697 -0.308315 1.280049
2.065331 -0.318252 1.296213
2.075756 -0.320222 1.296125
2.001315 -0.298994 1.248467
2.007936 -0.299914 1.246177
2.011106 -0.299891 1.241953
2.009933 -0.298678 1.235280
2.006832 -0.296936 1.227506
2.009676 -0.296822 1.223090
2.008500 -0.295605 1.216391
2.034539 -0.301862 1.225178
2.015759 -0.295809 1.208449
2.013348 -0.294250 1.201029
2.011800 -0.292927 1.194091
2.009502 -0.291396 1.186713
2.009108 -0.290388 1.180418
2.004508 -0.288219 1.171690
2.008012 -0.288284 1.167630
2.011012 -0.288210 1.163280
2.005389 -0.285753 1.153926
2.006505 -0.285156 1.148471
1.267254 -0.515641 3.490874
1.275486 -0.516797 3.487115
1.278752 -0.516851 3.482906
1.467681 -0.554271 3.469767
1.474787 -0.555205 3.466085
1.486452 -0.557157 3.462866
1.492108 -0.557769 3.459058
1.493719 -0.557479 3.454847
1.496383 -0.557423 3.450742
1.503457 -0.558354 3.447092
1.502805 -0.557557 3.442648
1.513887 -0.559388 3.439426
1.516559 -0.559335 3.435333
1.522864 -0.560098 3.431626
1.531717 -0.561433 3.428198
1.542259 -0.563149 3.424963
1.548610 -0.563926 3.421288
1.559248 -0.565667 3.418087
1.559859 -0.565156 3.413796
1.569861 -0.566756 3.410544
1.578439 -0.568039 3.407146
1.595639 -0.571264 3.404731
1.610508 -0.573968 3.402075
1.620617 -0.575602 3.398896
1.620260 -0.574877 3.394525
1.627859 -0.575947 3.391073
1.642630 -0.578638 3.388467
1.657938 -0.581453 3.385945
1.662534 -0.581850 3.382177
1.667049 -0.582230 3.378402
1.686253 -0.585934 3.376396
1.677176 -0.583239 3.370998
1.698602 -0.587451 3.369295
1.729267 -0.593762 3.368757
1.727169 -0.592650 3.364223
1.736968 -0.594236 3.361160
1.746161 -0.595687 3.358034
1.746880 -0.595215 3.353853
1.754682 -0.596352 3.350567
1.757959 -0.596462 3.346713
1.755920 -0.595362 3.342179
1.764802 -0.596748 3.339049
1.771097 -0.597546 3.335594
1.792606 -0.601812 3.334138
1.775601 -0.597301 3.327639
1.769830 -0.595349 3.322599
1.774776 -0.595840 3.318975
1.769555 -0.594011 3.313991
1.771718 -0.593867 3.309992
1.774651 -0.593898 3.306098
1.776841 -0.593761 3.302103
1.778160 -0.593423 3.297989
1.783583 -0.594026 3.294442
1.774223 -0.591242 3.288841
1.781123 -0.592183 3.285499
1.785510 -0.592549 3.281811
1.788196 -0.592524 3.277886
1.786290 -0.591446 3.273307
1.790995 -0.591885 3.269669
1.800424 -0.593412 3.266719
1.804635 -0.593739 3.263022
1.851477 -0.603879 3.265558
1.810181 -0.593734 3.255218
1.826719 -0.596903 3.253352
1.842223 -0.599837 3.251357
1.851173 -0.601264 3.248405
1.896620 -0.611114 3.250952
1.875146 -0.605523 3.243454
1.875685 -0.605012 3.239262
1.884545 -0.606424 3.236341
1.887552 -0.606484 3.232532
1.898533 -0.608389 3.229957
1.902443 -0.608660 3.226297
1.908922 -0.609526 3.223043
1.913430 -0.609936 3.219486
1.918157 -0.610398 3.215968
1.928606 -0.612188 3.213364
1.928533 -0.611538 3.209093
1.931370 -0.611563 3.205286
1.952137 -0.615756 3.204376
1.961518 -0.617305 3.201650
1.969064 -0.618429 3.198637
1.972303 -0.618552 3.194926
1.976540 -0.618908 3.191382
1.987940 -0.620934 3.189030
1.990276 -0.620849 3.185183
2.002505 -0.623072 3.182994
2.000822 -0.622049 3.178479
1.994572 -0.619959 3.173185
2.051773 -0.632697 3.178674
2.062805 -0.634652 3.176362
2.059110 -0.633164 3.171534
2.058655 -0.632433 3.167256
2.062201 -0.632638 3.163668
2.063227 -0.632253 3.159643
2.063565 -0.631706 3.155496
2.064182 -0.631225 3.151395
2.064137 -0.630588 3.147174
2.058175 -0.628560 3.141896
2.059525 -0.628249 3.137913
2.061218 -0.628018 3.133989
2.065408 -0.628374 3.130517
2.062959 -0.627169 3.125843
2.059882 -0.625814 3.121046
2.063786 -0.626103 3.117520
2.069461 -0.626810 3.114323
2.067845 -0.625798 3.109784
2.070782 -0.625860 3.106085
2.066095 -0.624121 3.100962
2.077790 -0.626252 3.098903
2.092302 -0.629052 3.097393
2.120562 -0.635107 3.098509
2.123374 -0.635146 3.094828
2.126549 -0.635270 3.091217
2.135511 -0.636767 3.088720
2.144350 -0.638236 3.086212
2.146443 -0.638106 3.082408
2.147332 -0.637690 3.078370
2.145741 -0.636685 3.073844
2.133749 -0.633208 3.067267
2.149297 -0.636275 3.066103
2.146557 -0.634995 3.061336
2.147551 -0.634602 3.057305
2.091942 -0.620727 3.041942
2.125939 -0.628192 3.044491
2.130822 -0.628723 3.041219
2.141092 -0.630539 3.039044
2.139980 -0.629641 3.034565
2.141470 -0.629364 3.030612
2.143203 -0.629144 3.026709
2.142498 -0.628342 3.022302
2.139630 -0.627021 3.017441
2.136860 -0.625722 3.012592
2.135337 -0.624721 3.007995
2.132986 -0.623520 3.003218
2.131113 -0.622433 2.998534
2.130768 -0.621711 2.994166
2.130169 -0.620928 2.989740
2.134708 -0.621378 2.986407
2.130360 -0.619693 2.981172
2.132150 -0.619482 2.977247
2.129688 -0.618249 2.972403
2.145336 -0.621373 2.971485
2.138795 -0.619157 2.965750
2.140992 -0.619044 2.961914
2.148649 -0.620248 2.959280
2.132750 -0.615770 2.951452
2.153019 -0.620018 2.951614
2.143628 -0.617107 2.945203
2.124283 -0.611788 2.936544
2.157593 -0.619195 2.939673
2.136029 -0.613334 2.930484
2.167445 -0.620293 2.933248
2.161639 -0.618243 2.927603
2.160433 -0.617306 2.922994
2.171888 -0.619438 2.921281
2.170655 -0.618495 2.916666
2.167496 -0.617082 2.911599
2.160909 -0.614836 2.905728
2.160038 -0.613977 2.901172
2.158619 -0.612984 2.896482
2.156546 -0.611830 2.891633
2.166149 -0.613518 2.889527
2.155793 -0.610346 2.882714
2.159038 -0.610486 2.879107
2.163732 -0.610980 2.875849
2.167951 -0.611358 2.872482
2.160913 -0.608988 2.866414
2.168720 -0.610243 2.863909
2.164314 -0.608514 2.858459
2.171871 -0.609709 2.855904
2.184654 -0.612184 2.854635
2.191165 -0.613126 2.851849
2.171979 -0.607775 2.842753
2.183123 -0.609852 2.841104
2.182971 -0.609161 2.836673
2.179559 -0.607670 2.831427
2.182242 -0.607673 2.827692
2.184978 -0.607690 2.823971
2.192947 -0.608993 2.821568
2.227756 -0.616900 2.825952
2.224774 -0.615515 2.820822
2.233793 -0.617084 2.818735
2.232009 -0.615994 2.813903
2.232093 -0.615362 2.809542
2.238446 -0.616277 2.806790
2.240875 -0.616224 2.803033
2.240987 -0.615600 2.798677
2.246000 -0.616185 2.795591
2.243370 -0.614882 2.790517
2.248901 -0.615597 2.787571
2.245904 -0.614201 2.782390
2.265588 -0.618422 2.783183
2.262980 -0.617123 2.778107
2.266370 -0.617310 2.774616
2.271485 -0.617926 2.771589
2.271734 -0.617334 2.767264
2.272660 -0.616911 2.763118
2.272599 -0.616241 2.758704
2.276679 -0.616601 2.755406
2.272580 -0.614926 2.749892
2.259189 -0.610937 2.741836
2.269386 -0.612818 2.740196
2.279960 -0.614796 2.738677
2.304456 -0.620248 2.741005
2.278521 -0.613123 2.729448
2.273317 -0.611166 2.723582
2.280153 -0.612214 2.721051
2.279739 -0.611451 2.716506
2.251137 -0.603639 2.704062
2.200107 -0.590206 2.685256
2.289731 -0.611973 2.706011
2.280751 -0.609063 2.699034
2.282475 -0.608833 2.695075
2.286779 -0.609251 2.691850
2.288558 -0.609035 2.687908
2.295219 -0.610045 2.685366
2.285899 -0.607041 2.678233
2.282257 -0.605462 2.672718
2.274972 -0.602965 2.666136
2.274481 -0.602174 2.661512
2.267521 -0.599754 2.654995
2.265991 -0.598700 2.650050
2.272975 -0.599790 2.647598
2.289770 -0.603357 2.648046
2.297436 -0.604625 2.645825
2.306992 -0.606371 2.644175
2.303629 -0.604855 2.638696
2.304301 -0.604357 2.634410
2.304908 -0.603843 2.630103
2.338091 -0.611574 2.635581
2.316243 -0.605376 2.624531
2.376753 -0.620042 2.638344
2.325359 -0.606351 2.618314
2.331930 -0.607350 2.615825
2.332213 -0.606755 2.611425
2.342185 -0.608620 2.609991
2.340356 -0.607488 2.604945
2.352321 -0.609862 2.604144
2.336238 -0.605103 2.594686
2.341050 -0.605659 2.591678
2.344318 -0.605822 2.588194
2.346778 -0.605779 2.584460
2.353842 -0.606910 2.582170
2.367998 -0.609853 2.582119
2.375001 -0.610973 2.579836
2.334083 -0.599852 2.562404
2.383845 -0.611898 2.573663
2.399375 -0.615202 2.574120
2.403982 -0.615715 2.571115
2.380718 -0.609093 2.559187
2.398103 -0.612877 2.560271
2.398472 -0.612304 2.555901
2.379486 -0.606765 2.545269
2.403226 -0.612186 2.548453
2.402514 -0.611335 2.543725
2.408512 -0.612206 2.541182
2.411675 -0.612350 2.537718
2.410454 -0.611367 2.532817
2.435675 -0.617189 2.536619
2.442979 -0.618403 2.534549
2.446679 -0.618690 2.531294
2.307858 -0.582226 2.480667
2.450381 -0.618311 2.523563
2.419065 -0.609559 2.508604
2.456470 -0.618549 2.516630
2.443187 -0.614448 2.507674
2.369558 -0.594736 2.478321
2.445984 -0.613831 2.499607
2.434752 -0.610252 2.491283
2.405993 -0.602128 2.476964
2.436793 -0.609434 2.482924
2.443611 -0.610528 2.480728
2.447109 -0.610762 2.477401
2.441655 -0.608672 2.470992
2.436581 -0.606678 2.464698
2.435505 -0.605721 2.459777
2.429976 -0.603606 2.453300
2.423795 -0.601318 2.446581
2.424467 -0.600812 2.442241
2.428215 -0.601108 2.438978
2.434640 -0.602102 2.436660
2.446136 -0.604421 2.436141
2.440055 -0.602154 2.429421
2.440041 -0.601469 2.424837
2.442875 -0.601528 2.421263
2.447689 -0.602105 2.418397
2.435422 -0.598213 2.409422
2.436043 -0.597691 2.405045
2.445579 -0.599505 2.403875
2.440666 -0.597533 2.397503
2.429979 -0.594044 2.389025
2.449008 -0.598351 2.391313
2.448226 -0.597460 2.386420
2.450015 -0.597243 2.382462
2.450153 -0.596593 2.377897
2.438164 -0.592752 2.368874
2.436448 -0.591611 2.363607
2.442995 -0.592645 2.361383
2.453420 -0.594702 2.360606
2.432683 -0.588545 2.348269
2.441952 -0.590297 2.347064
2.459019 -0.594110 2.348788
2.451705 -0.591488 2.341408
2.470544 -0.595776 2.343835
2.468008 -0.594415 2.338243
2.480853 -0.597123 2.338453
2.512931 -0.604928 2.345973
2.492129 -0.598731 2.333466
2.532580 -0.608766 2.344247
2.509508 -0.601963 2.330840
2.546916 -0.611204 2.340550
2.522295 -0.603983 2.326506
2.550923 -0.610903 2.332919
2.526522 -0.603733 2.318903
2.539167 -0.606410 2.319182
2.540059 -0.605961 2.314917
2.546072 -0.606876 2.312645
2.544069 -0.605656 2.307251
2.538057 -0.603366 2.300278
2.526533 -0.599602 2.291124
2.528385 -0.599406 2.287207
2.527963 -0.598602 2.282393
2.526869 -0.597617 2.277307
2.532977 -0.598558 2.275073
2.534734 -0.598335 2.271116
2.533898 -0.597418 2.266124
2.530589 -0.595838 2.260135
2.532480 -0.595650 2.256222
2.536546 -0.596045 2.253184
2.537475 -0.595599 2.248884
2.542207 -0.596174 2.246121
2.534643 -0.593446 2.238377
2.537444 -0.593501 2.234826
2.531588 -0.591228 2.227748
2.540733 -0.592990 2.226784
2.537469 -0.591412 2.220750
2.534531 -0.589921 2.214839
2.532267 -0.588609 2.209195
2.528490 -0.586888 2.202915
2.526920 -0.585761 2.197538
2.558427 -0.593570 2.205890
2.506587 -0.578855 2.179601
2.486495 -0.572711 2.166449
2.486716 -0.572058 2.161750
2.485081 -0.570901 2.156269
2.478846 -0.568497 2.148844
2.474336 -0.566558 2.142129
2.470607 -0.564829 2.135730
2.462551 -0.561923 2.127483
2.460624 -0.560679 2.121820
2.464023 -0.560881 2.118417
2.462902 -0.559855 2.113086
2.464681 -0.559616 2.108991
2.485515 -0.564566 2.113080
2.454761 -0.555467 2.094994
2.468823 -0.558574 2.096184
2.438164 -0.549486 2.078044
2.435432 -0.548010 2.071951
2.423852 -0.544116 2.061997
2.383120 -0.532250 2.039298
2.419566 -0.541475 2.050252
2.401597 -0.535822 2.037427
2.385535 -0.530685 2.025396
2.350012 -0.520210 2.004750
2.392680 -0.531157 2.018558
2.391774 -0.530165 2.013161
2.290037 -0.496917 1.932198
2.287024 -0.495321 1.925687
2.234658 -0.480112 1.896813
2.269533 -0.488959 1.907425
2.262928 -0.486363 1.899231
2.261816 -0.485282 1.893524
2.254779 -0.482562 1.885098
2.251924 -0.480996 1.878570
2.257046 -0.481636 1.875697
2.257271 -0.480921 1.870574
2.247583 -0.477458 1.860868
2.237476 -0.473875 1.850940
2.231662 -0.471478 1.842977
2.205974 -0.463561 1.825748
2.191355 -0.458710 1.813619
2.187363 -0.456807 1.806421
2.190166 -0.456792 1.802393
2.185851 -0.454796 1.795022
2.175313 -0.451065 1.784705
2.153655 -0.444231 1.769109
2.149636 -0.442307 1.761806
2.157092 -0.443583 1.759933
2.157204 -0.442810 1.754579
2.160666 -0.442972 1.750818
2.173317 -0.445702 1.751450
2.177357 -0.446028 1.747982
2.179761 -0.445897 1.743731
2.166816 -0.441468 1.732093
2.166630 -0.440608 1.726576
2.164952 -0.439329 1.720331
2.058846 -0.407096 1.652310
2.038262 -0.400481 1.636682
2.032123 -0.397921 1.628069
2.011653 -0.391324 1.612406
1.991125 -0.384704 1.596662
1.981669 -0.381195 1.586322
1.953297 -0.372349 1.566608
1.952601 -0.371300 1.560529
1.953883 -0.370807 1.555425
1.972604 -0.375240 1.558995
1.970957 -0.373923 1.552446
1.944190 -0.365500 1.533328
1.942999 -0.364304 1.526959
2.059875 -0.396535 1.579879
1.937666 -0.361073 1.512709
1.952989 -0.364554 1.514643
1.944066 -0.361162 1.504345
1.926075 -0.355193 1.489423
1.936387 -0.357254 1.488834
2.004663 -0.375791 1.517785
1.925715 -0.352487 1.471737
2.054199 -0.388175 1.531631
1.937616 -0.354135 1.466143
1.954390 -0.358044 1.468922
1.965618 -0.360377 1.468878
1.966237 -0.359688 1.463376
1.970026 -0.359903 1.459510
1.969185 -0.358795 1.453246
1.963795 -0.356387 1.444609
1.966014 -0.356152 1.439919
1.970505 -0.356567 1.436415
1.973312 -0.356500 1.432034
1.974741 -0.356039 1.426932
1.974857 -0.355200 1.421136
1.974522 -0.354232 1.415097
1.969060 -0.351792 1.406343
1.976498 -0.353053 1.404400
1.981404 -0.353588 1.401126
1.993328 -0.356142 1.401591
1.992230 -0.354953 1.395136
1.954145 -0.343114 1.368911
1.969137 -0.346551 1.371011
1.962842 -0.343857 1.361717
2.019498 -0.359316 1.386264
2.040925 -0.364628 1.391949
1.982729 -0.346951 1.354657
2.018750 -0.356479 1.368241
1.957960 -0.338026 1.329362
1.961340 -0.338117 1.325235
1.983582 -0.343668 1.331395
1.998012 -0.346964 1.333334
1.997584 -0.345957 1.327166
1.993369 -0.343851 1.318912
1.998469 -0.344446 1.315766
1.968392 -0.334826 1.293234
1.975166 -0.335902 1.290983
1.968945 -0.333202 1.281547
1.981691 -0.336017 1.282615
1.987779 -0.336898 1.280006
1.990659 -0.336845 1.275617
1.987672 -0.335083 1.267952
1.994602 -0.336210 1.265825
2.006523 -0.338797 1.266510
2.002875 -0.336839 1.258464
1.998085 -0.334546 1.249760
2.005076 -0.335695 1.247690
2.006226 -0.335137 1.242326
2.014031 -0.336527 1.240734
2.014580 -0.335793 1.235031
2.012496 -0.334286 1.227822
2.013613 -0.333716 1.222430
2.011124 -0.332088 1.214971
2.010997 -0.331152 1.208855
2.010237 -0.330028 1.202368
2.006461 -0.328017 1.194137
2.008332 -0.327665 1.189149
2.016369 -0.329128 1.187726
2.018698 -0.328912 1.183008
2.020638 -0.328580 1.178065
2.001842 -0.322132 1.161048
2.021097 -0.326908 1.166177
2.026404 -0.327570 1.163194
1.898747 -0.647382 3.252926
1.910641 -0.649082 3.246256
1.907772 -0.647099 3.237333
1.913281 -0.647841 3.233940
1.914959 -0.647627 3.229955
1.916899 -0.647477 3.226011
1.926920 -0.649351 3.223342
1.936299 -0.651065 3.220585
1.937250 -0.650670 3.216496
1.942784 -0.651423 3.213140
1.953704 -0.653528 3.210659
1.968876 -0.656702 3.208882
1.977057 -0.658125 3.205989
1.980271 -0.658301 3.202292
1.983086 -0.658378 3.198531
1.981343 -0.657308 3.194017
1.986151 -0.657886 3.190587
1.995046 -0.659493 3.187845
2.001897 -0.660587 3.184772
2.016205 -0.663561 3.182969
2.018019 -0.663389 3.179063
2.018123 -0.662786 3.174864
2.039294 -0.667498 3.174280
2.041159 -0.667341 3.170397
2.049474 -0.668813 3.167632
2.053486 -0.669199 3.164128
2.058263 -0.669779 3.160762
2.067333 -0.671447 3.158157
2.020125 -0.658870 3.145602
2.048676 -0.665467 3.146437
2.069985 -0.670236 3.146025
2.072124 -0.670150 3.142202
2.072695 -0.669666 3.138097
2.026675 -0.657358 3.125536
2.084756 -0.671470 3.131869
2.093807 -0.673141 3.129319
2.081902 -0.669487 3.122924
2.091637 -0.671333 3.120507
2.089713 -0.670215 3.115936
2.091249 -0.669976 3.112005
2.120130 -0.676702 3.113203
2.006459 -0.647107 3.087577
2.067352 -0.661990 3.094807
2.101723 -0.670124 3.097095
2.109849 -0.671567 3.094423
2.041773 -0.653552 3.077126
2.112293 -0.670930 3.086447
2.121418 -0.672631 3.083989
2.123490 -0.672531 3.080171
2.119179 -0.670796 3.075103
2.107510 -0.667177 3.068578
2.111498 -0.667564 3.065120
2.112886 -0.667286 3.061149
2.112490 -0.666550 3.056822
2.118336 -0.667415 3.053740
2.125077 -0.668511 3.050845
2.155177 -0.675608 3.052675
2.104225 -0.661883 3.038116
2.110682 -0.662905 3.035157
2.114876 -0.663346 3.031743
2.115539 -0.662879 3.027607
2.111214 -0.661126 3.022439
2.095526 -0.656445 3.014904
2.103415 -0.657836 3.012246
2.098683 -0.655974 3.006959
2.143538 -0.666906 3.012076
2.148622 -0.667582 3.008881
2.131992 -0.662648 3.001090
2.114661 -0.657529 2.993117
2.121547 -0.658667 2.990283
2.129455 -0.660070 2.987677
2.128337 -0.659139 2.983136
2.132759 -0.659641 2.979789
2.138274 -0.660428 2.976684
2.133731 -0.658607 2.971390
2.135054 -0.658307 2.967370
2.138880 -0.658656 2.963899
2.140530 -0.658440 2.959950
2.133285 -0.655913 2.954027
2.137538 -0.656373 2.950649
2.147621 -0.658350 2.948580
2.170718 -0.663715 2.949448
2.125437 -0.651283 2.934931
2.138973 -0.654160 2.933649
2.144540 -0.654963 2.930576
2.149220 -0.655535 2.927306
2.149229 -0.654890 2.922971
2.149002 -0.654183 2.918577
2.148146 -0.653310 2.914034
2.146884 -0.652331 2.909392
2.133463 -0.648171 2.901910
2.127462 -0.645948 2.896135
2.134521 -0.647142 2.893413
2.147803 -0.649967 2.892167
2.128018 -0.644130 2.883114
2.133583 -0.644933 2.880045
2.134098 -0.644412 2.875778
2.140227 -0.645365 2.872853
2.134973 -0.643329 2.867198
2.149825 -0.646574 2.866382
2.147720 -0.645366 2.861482
2.158443 -0.647529 2.859694
2.164395 -0.648440 2.856757
2.171803 -0.649735 2.854185
2.188711 -0.653535 2.853960
2.186014 -0.652171 2.848921
2.186084 -0.651535 2.844558
2.184782 -0.650537 2.839852
2.204716 -0.655144 2.840443
2.205683 -0.654746 2.836312
2.178179 -0.646824 2.825013
2.213469 -0.655498 2.829522
2.215227 -0.655309 2.825592
2.209647 -0.653178 2.819792
2.208994 -0.652350 2.815238
2.213299 -0.652835 2.811949
2.216077 -0.652915 2.808272
2.226769 -0.655095 2.806640
2.233292 -0.656172 2.803944
2.215641 -0.650829 2.794966
2.228293 -0.653533 2.793865
2.243204 -0.656840 2.793376
2.221552 -0.650426 2.783293
2.248623 -0.656972 2.786028
2.179991 -0.638042 2.763453
2.188976 -0.639770 2.761383
2.230581 -0.650194 2.768033
2.182848 -0.636804 2.750829
2.225908 -0.647627 2.757935
2.225715 -0.646914 2.753452
2.231966 -0.647921 2.750710
2.238315 -0.648956 2.748001
2.242656 -0.649455 2.744754
2.144700 -0.622585 2.713522
2.243917 -0.648469 2.736235
2.251148 -0.649743 2.733790
2.250411 -0.648883 2.729152
2.251573 -0.648532 2.725036
2.261732 -0.647276 2.701204
2.255564 -0.644950 2.694995
2.254704 -0.643385 2.685813
2.265523 -0.645633 2.684446
2.171649 -0.619646 2.652929
2.210026 -0.627967 2.650396
2.241073 -0.635008 2.650413
2.268375 -0.641721 2.653924
2.356761 -0.573351 2.061920
2.379219 -0.567217 1.986750
2.374276 -0.565011 1.979481
2.355162 -0.558631 1.965779
2.326205 -0.549346 1.947559
2.331618 -0.550178 1.944914
2.329360 -0.548750 1.938775
2.307633 -0.541576 1.923721
2.284497 -0.533979 1.907966
2.353198 -0.553496 1.934370
2.291631 -0.534540 1.900895
2.247413 -0.520692 1.875289
2.223444 -0.512820 1.858955
2.216639 -0.510019 1.850529
2.210135 -0.507304 1.842223
2.200845 -0.503761 1.832598
2.203496 -0.503754 1.828530
2.189080 -0.498684 1.816462
2.198458 -0.500672 1.815538
2.195478 -0.498991 1.808809
2.202749 -0.500356 1.806908
2.194549 -0.497121 1.797695
2.197291 -0.497139 1.793651
2.194939 -0.495640 1.787184
2.198715 -0.495965 1.783629
2.187474 -0.491815 1.772900
2.184014 -0.489980 1.765867
2.185647 -0.489663 1.761268
2.187504 -0.489413 1.756774
2.191403 -0.489773 1.753266
2.193707 -0.489657 1.748989
2.187581 -0.487019 1.740625
2.183749 -0.485065 1.733356
2.179028 -0.482842 1.725640
2.176401 -0.481245 1.718930
1.467219 -0.610950 3.476087
1.477273 -0.612909 3.472715
1.477062 -0.612200 3.468332
1.491035 -0.615181 3.465371
1.491601 -0.614675 3.461071
1.498625 -0.615850 3.457427
1.509171 -0.617945 3.454154
1.517095 -0.619357 3.450623
1.526095 -0.621052 3.447214
1.529392 -0.621261 3.443214
1.527361 -0.620078 3.438651
1.537198 -0.621995 3.435352
1.538721 -0.621741 3.431168
1.555532 -0.625483 3.428644
1.568343 -0.628183 3.425707
1.574907 -0.629250 3.422098
1.609432 -0.637639 3.421604
1.621330 -0.640110 3.418630
1.628018 -0.641217 3.415085
1.631179 -0.641401 3.411146
1.637873 -0.642512 3.407613
1.644718 -0.643664 3.404105
1.645067 -0.643112 3.399851
1.654336 -0.644902 3.396637
1.661993 -0.646270 3.393245
1.661450 -0.645484 3.388889
1.669762 -0.647026 3.385587
1.673803 -0.647446 3.381781
1.679041 -0.648181 3.378124
1.700992 -0.653320 3.376510
1.710162 -0.655095 3.373360
1.716018 -0.655998 3.369811
1.729009 -0.658785 3.367157
1.741389 -0.661413 3.364445
1.741021 -0.660677 3.360142
1.745546 -0.661234 3.356456
1.780832 -0.669921 3.356707
1.781963 -0.669585 3.352618
1.736925 -0.657035 3.342548
1.745483 -0.658659 3.339386
1.763161 -0.662698 3.337430
1.775210 -0.665251 3.334758
1.776737 -0.665018 3.330704
1.807701 -0.672590 3.330587
1.798318 -0.669465 3.325088
1.727156 -0.649940 3.311202
1.736273 -0.651715 3.308133
1.778877 -0.662388 3.309668
1.830432 -0.675450 3.312506
1.744602 -0.651990 3.296356
1.754879 -0.654078 3.293480
1.762625 -0.655494 3.290262
1.761714 -0.654606 3.285830
1.769513 -0.656039 3.282632
1.754463 -0.651381 3.276174
1.753909 -0.650585 3.271773
1.748906 -0.648602 3.266724
1.740866 -0.645806 3.261220
1.771304 -0.653284 3.261336
1.790148 -0.657672 3.259792
1.805899 -0.661236 3.257818
1.819339 -0.664187 3.255523
1.814657 -0.662290 3.250530
1.842173 -0.669013 3.250382
1.901232 -0.682921 3.246595
1.910235 -0.684701 3.243746
1.912633 -0.684709 3.239884
1.915475 -0.684837 3.236092
1.925281 -0.686836 3.233393
1.932797 -0.688222 3.230347
1.949450 -0.692065 3.228759
1.951992 -0.692117 3.224946
1.955235 -0.692357 3.221247
1.963508 -0.693952 3.218360
1.979696 -0.697681 3.216767
1.985066 -0.698498 3.213436
1.991490 -0.699600 3.210284
1.991820 -0.699059 3.206135
1.994389 -0.699121 3.202354
1.997800 -0.699412 3.198715
1.996180 -0.698343 3.194236
1.992989 -0.696849 3.189486
1.995130 -0.696795 3.185629
2.033772 -0.706618 3.187973
2.096133 -0.722872 3.194433
2.128315 -0.730969 3.195818
1.996017 -0.694500 3.168876
2.005017 -0.696305 3.166202
2.028172 -0.701952 3.166008
2.001770 -0.694155 3.157169
2.008375 -0.695312 3.154092
2.021998 -0.698378 3.152264
2.039938 -0.702619 3.151225
2.014472 -0.695062 3.142456
2.040447 -0.701492 3.142877
2.054853 -0.704780 3.141253
2.007540 -0.691264 3.128457
2.031076 -0.697037 3.128486
2.040146 -0.698873 3.125903
2.118222 -0.719530 3.136033
2.036571 -0.696626 3.116760
2.047585 -0.698995 3.114557
2.078123 -0.706699 3.116015
2.107812 -0.714179 3.117365
2.069915 -0.703189 3.106025
2.091129 -0.708357 3.105808
2.079234 -0.704469 3.099326
2.072342 -0.701947 3.093775
2.132181 -0.717702 3.101025
2.150798 -0.722175 3.100424
2.099329 -0.707436 3.086267
2.109064 -0.709472 3.083932
2.106454 -0.708123 3.079197
2.110966 -0.708727 3.075853
2.113082 -0.708674 3.072041
2.105263 -0.705890 3.066258
2.102981 -0.704627 3.061560
2.108164 -0.705416 3.058349
2.108117 -0.704766 3.054092
2.104723 -0.703194 3.049156
2.109001 -0.703734 3.045766
2.105961 -0.702257 3.040888
2.088315 -0.696751 3.033013
2.101954 -0.699872 3.031533
2.078677 -0.692805 3.022451
2.082955 -0.693342 3.019038
2.082446 -0.692556 3.014632
2.087557 -0.693324 3.011398
2.086186 -0.692300 3.006806
2.085721 -0.691525 3.002400
2.091337 -0.692433 2.999278
2.102528 -0.694887 2.997350
2.096549 -0.692585 2.991767
2.103343 -0.693822 2.988912
2.109218 -0.694805 2.985867
2.114836 -0.695719 2.982774
2.113729 -0.694765 2.978225
2.117595 -0.695193 2.974757
2.122845 -0.696005 2.971595
2.121977 -0.695117 2.967092
2.122006 -0.694478 2.962781
2.122274 -0.693905 2.958521
2.122279 -0.693258 2.954198
2.121905 -0.692505 2.949787
2.117089 -0.690512 2.944372
2.115518 -0.689423 2.939678
2.115389 -0.688736 2.935303
2.118782 -0.689031 2.931726
2.121462 -0.689128 2.927989
2.139910 -0.693632 2.927870
2.150208 -0.695861 2.925905
2.127929 -0.688978 2.916420
2.120654 -0.686288 2.910374
2.119995 -0.685449 2.905853
2.114605 -0.683283 2.900220
2.109818 -0.681284 2.894714
2.113928 -0.681779 2.891295
2.109032 -0.679747 2.885747
2.126605 -0.684021 2.885529
2.126075 -0.683215 2.881018
2.138552 -0.686064 2.879619
2.214420 -0.706741 2.893494
2.103804 -0.674973 2.862459
2.105301 -0.674732 2.858401
2.112783 -0.676175 2.855798
2.113121 -0.675607 2.851460
2.124088 -0.678036 2.849726
2.132220 -0.679667 2.847311
2.144904 -0.682584 2.846032
2.150302 -0.683448 2.842966
2.151261 -0.683058 2.838799
2.170069 -0.687712 2.839095
2.186841 -0.691796 2.838910
2.187187 -0.691236 2.834615
2.184598 -0.689846 2.829575
2.192588 -0.691450 2.827211
2.198755 -0.692539 2.824394
2.196858 -0.691344 2.819523
2.199971 -0.691568 2.815930
2.209965 -0.693745 2.814112
2.203106 -0.691140 2.807951
2.202654 -0.690352 2.803437
2.218299 -0.694138 2.803110
2.206356 -0.690084 2.795597
2.223781 -0.694380 2.795763
2.235317 -0.697005 2.794408
2.159142 -0.674656 2.769886
2.174239 -0.678288 2.769428
2.193477 -0.683104 2.770097
2.218536 -0.689585 2.772355
2.230807 -0.692423 2.771227
2.240528 -0.694537 2.769433
2.244245 -0.694938 2.766032
2.246319 -0.694870 2.762189
2.241604 -0.692861 2.756500
2.240849 -0.691983 2.751878
2.231716 -0.688707 2.744956
2.245114 -0.691878 2.744206
2.240090 -0.689776 2.738396
2.255536 -0.693538 2.738240
2.263228 -0.695081 2.735955
2.263808 -0.694585 2.731698
2.261454 -0.693246 2.726618
2.260096 -0.692192 2.721809
2.260928 -0.691766 2.717610
2.260660 -0.691024 2.713098
2.257100 -0.689334 2.707647
2.251612 -0.687088 2.701637
2.279471 -0.694441 2.705137
2.253924 -0.686416 2.693380
2.253338 -0.685578 2.688748
2.250808 -0.684179 2.683551
2.251518 -0.683713 2.679282
2.235729 -0.678483 2.670217
2.269839 -0.687661 2.675663
2.295520 -0.694412 2.678707
2.379506 -0.718027 2.698908
2.271584 -0.686154 2.662762
2.275800 -0.686703 2.659529
2.279691 -0.687158 2.656204
2.280269 -0.686654 2.651898
2.280325 -0.685998 2.647433
2.278336 -0.684748 2.642352
2.292604 -0.688215 2.642146
2.270601 -0.681155 2.631033
2.270863 -0.680555 2.626605
2.284703 -0.683901 2.626292
2.295859 -0.686470 2.625186
2.292593 -0.684845 2.619694
2.303957 -0.687478 2.618674
2.332973 -0.695253 2.623097
2.302102 -0.685589 2.609108
2.314220 -0.688446 2.608352
2.311047 -0.686846 2.602871
2.311244 -0.686228 2.598428
2.306659 -0.684214 2.592488
2.311341 -0.684904 2.589439
2.312264 -0.684497 2.585213
2.316024 -0.684919 2.581879
2.325832 -0.687110 2.580463
2.328902 -0.687332 2.576923
2.336406 -0.688852 2.574798
2.356321 -0.694011 2.576647
2.338308 -0.688057 2.566380
2.350082 -0.690832 2.565647
2.365408 -0.694654 2.566078
2.351111 -0.689782 2.556956
2.359133 -0.691461 2.555041
2.366974 -0.693089 2.553080
2.367635 -0.692607 2.548786
2.373396 -0.693625 2.546161
2.384288 -0.696155 2.545228
2.375339 -0.692844 2.537775
2.367075 -0.689731 2.530526
2.375378 -0.691500 2.528749
2.399355 -0.697894 2.532197
2.371796 -0.689085 2.518499
2.386482 -0.692741 2.518875
2.433990 -0.706098 2.530294
2.380959 -0.689750 2.507958
2.436966 -0.705634 2.522331
2.395925 -0.692817 2.503942
2.399744 -0.693268 2.500706
2.399675 -0.692567 2.496148
2.396499 -0.690945 2.490524
2.396520 -0.690270 2.485986
2.399231 -0.690392 2.482369
2.402139 -0.690573 2.478820
2.414265 -0.693491 2.478462
2.398095 -0.688005 2.468308
2.399846 -0.687841 2.464353
2.401670 -0.687699 2.460422
2.399091 -0.686246 2.454949
2.397322 -0.685033 2.449751
2.405662 -0.686830 2.448105
2.406974 -0.686535 2.443990
2.405180 -0.685313 2.438774
2.405510 -0.684724 2.434304
2.405621 -0.684069 2.429752
2.406397 -0.683611 2.425434
2.404848 -0.682459 2.420280
2.402879 -0.681179 2.414968
2.400240 -0.679699 2.409406
2.407984 -0.681324 2.407587
2.408276 -0.680719 2.403079
2.405950 -0.679330 2.397614
2.402690 -0.677659 2.391801
2.394927 -0.674636 2.384329
2.416389 -0.680381 2.387556
2.460766 -0.693012 2.399251
2.412497 -0.677823 2.376862
2.440314 -0.685489 2.382512
2.427138 -0.680834 2.373009
2.441013 -0.684314 2.373538
2.444332 -0.684620 2.370154
2.448791 -0.685270 2.367199
2.449435 -0.684771 2.362818
2.440263 -0.681312 2.354740
2.447864 -0.682909 2.352968
2.454933 -0.684347 2.351005
2.465761 -0.686923 2.350480
2.446316 -0.680353 2.338455
2.466179 -0.685661 2.341383
2.473722 -0.687248 2.339634
2.474880 -0.686904 2.335447
2.485449 -0.689409 2.334880
2.484478 -0.688421 2.329878
2.497050 -0.691538 2.330110
2.499273 -0.691519 2.326349
2.506999 -0.693169 2.324729
2.509163 -0.693134 2.320952
2.516447 -0.694653 2.319178
2.524545 -0.696422 2.317735
2.527942 -0.696762 2.314455
2.526647 -0.695676 2.309328
2.518890 -0.692622 2.301637
2.517398 -0.691472 2.296411
2.507686 -0.687817 2.287908
2.499698 -0.684683 2.280066
2.503767 -0.685224 2.277024
2.504367 -0.684707 2.272596
2.503938 -0.683875 2.267751
2.506165 -0.683854 2.263971
2.504705 -0.682706 2.258702
2.502649 -0.681375 2.253183
2.501545 -0.680333 2.248042
2.504951 -0.680672 2.244732
2.514438 -0.682874 2.243909
2.515879 -0.682612 2.239806
2.513956 -0.681318 2.234321
2.512880 -0.680283 2.229176
2.513914 -0.679894 2.224895
2.512531 -0.678763 2.219611
2.511624 -0.677777 2.214517
2.508911 -0.676234 2.208665
2.494329 -0.671038 2.197850
2.483564 -0.667012 2.188595
2.463368 -0.660076 2.175356
2.452057 -0.655872 2.165804
2.446957 -0.653577 2.158842
2.453032 -0.654729 2.156590
2.454728 -0.654530 2.152490
2.441582 -0.649746 2.142080
2.432709 -0.646279 2.133459
2.419828 -0.641568 2.123100
2.413933 -0.639013 2.115700
2.417140 -0.639273 2.112192
2.417075 -0.638521 2.107277
2.422057 -0.639331 2.104536
2.423619 -0.639082 2.100322
2.421568 -0.637712 2.094538
2.427754 -0.638897 2.092329
2.428574 -0.638417 2.087788
2.430960 -0.638423 2.083929
2.429879 -0.637352 2.078551
2.439745 -0.639684 2.077977
2.430435 -0.636051 2.068971
2.418814 -0.631696 2.058919
2.429698 -0.634346 2.058803
2.434188 -0.635006 2.055866
2.421557 -0.630328 2.045315
2.441933 -0.635944 2.049460
2.415321 -0.626897 2.032625
2.410052 -0.624506 2.025297
2.400293 -0.620710 2.015934
2.397876 -0.619206 2.009853
